-8.03461502374728,31.0501256862999,5.57038051779056
-6.92054869626008,29.047749778864,7.50000000000002
-7.86832253329783,31.3276872521914,5.85840756016625
-5.63697496761067,27.3171570921742,9.72321491328143
-8.03461502374728,17.0453738714281,5.57038051779057
-11.2506757151823,40.5477497788639,6.03961325396085E-14
-11.2506757151823,34.5477497788639,4.46406197031888E-14
-11.2506757151823,19.0477497788638,3.01980662698043E-14
-11.2506757151823,25.0477497788638,3.01980662698043E-14
14.7493242848178,17.0453738714282,5.57038051779056
14.7493242848178,17.0453738714282,5.57038051779056
14.7493242848178,16.7678123055365,5.85840756016633
14.7493242848178,16.7678123055365,5.85840756016633
14.7493242848177,21.088217941174,10.0218310485413
14.7493242848177,24.047749778864,12.8738281540895
8.7493242848177,24.0477497788638,12.8738281540895
14.7493242848177,24.047749778864,12.8738281540895
14.7493242848176,28.3681554145014,8.71040466571455
11.3669711029332,31.3276872521914,5.85840756016625
14.7493242848175,31.3276872521915,5.85840756016624
14.7493242848175,31.0501256862999,5.57038051779056
14.7493242848175,31.0501256862999,5.57038051779056
14.7493242848177,19.0477497788638,3.01980662698043E-14
14.7493242848177,19.0477497788639,6.00000000000003
14.7493242848176,29.047749778864,7.50000000000008
14.7493242848177,29.047749778864,1.50000000000008
10.4191972658955,19.0477497788638,7.50000000000007
14.7493242848176,29.047749778864,7.50000000000008
14.7493242848177,19.0477497788639,7.50000000000004
11.5332635933827,17.0453738714281,5.57038051779057
11.3669711029332,16.7678123055364,5.85840756016632
9.135623537246,20.7783424655537,9.72321491328155
11.3669711029332,31.3276872521914,5.85840756016625
11.5332635933827,31.0501256862999,5.57038051779056
7.31661613455321,24.0477497788638,12.8738281540895
9.54796370024031,28.0582799388811,9.00902080097422
10.4191972658955,19.0477497788638,7.50000000000007
14.7493242848177,19.0477497788638,3.01980662698043E-14
11.7493242848177,19.0477497788638,5.19615242270667
10.4191972658956,29.047749778864,7.50000000000005
13.4191972658956,29.047749778864,2.30384757729339
14.7493242848177,29.047749778864,3.5527136788005E-14
14.7493242848177,35.047749778864,4.8502265006233E-14
14.7493242848177,29.047749778864,3.5527136788005E-14
14.7493242848177,23.047749778864,3.23296944770846E-14
-10.6947087892961,10.2637205325814,1.77635683940025E-15
-4.6947087892961,10.2637205325814,1.77635683940025E-15
1.3052912107039,10.2637205325814,1.77635683940025E-15
7.3052912107039,10.2637205325814,1.77635683940025E-15
13.3052912107039,10.2637205325814,1.77635683940025E-15
1.7493242848177,10.2637205325814,21.5536975354324
4.74932428481768,10.2637205325814,16.3575451127258
7.74932428481766,10.2637205325814,11.1613926900191
10.7493242848176,10.2637205325814,5.9652402673125
13.7493242848176,10.2637205325814,0.769087844605861
-10.6947087892961,10.2637205325814,1.77635683940025E-15
-7.69470878929608,10.2637205325814,5.19615242270662
-4.69470878929606,10.2637205325814,10.3923048454132
-1.69470878929604,10.2637205325814,15.5884572681199
1.30529121070398,10.2637205325814,20.7846096908265
-11.2506757151823,40.5477497788639,6.03961325396085E-14
-5.2506757151823,40.5477497788639,6.03961325396085E-14
0.749324284817703,40.5477497788639,6.03961325396085E-14
6.7493242848177,40.5477497788639,6.03961325396085E-14
12.7493242848177,40.5477497788639,6.03961325396085E-14
7.97134082187456,8.90573515572271,10.7768487677162
-4.47269225223913,8.90573515572266,10.7768487677163
-4.01675256998065,24.4050375767952,12.5295224255377
7.51540113961605,24.4050375767952,12.5295224255377
6.31083362645731,7.54774977886392,13.6529315965126
-9.80730004220823,19.0477497788639,5.00000000000004
-9.80730004220823,29.047749778864,5.00000000000002
-9.60072300645282,16.9054272425449,5.71560384321104
-8.42050198073433,20.8621833183256,9.80400940462202
-9.60072300645264,31.190072315183,5.71560384321096
-9.35042270811636,29.9996682723135,6.58266951094739
-8.42050198073418,27.2333162394022,9.80400940462204
-9.35042270811642,18.0958312854145,6.58266951094735
13.0993715760882,16.9054272425449,5.71560384321104
11.9191505503697,20.8621833183256,9.80400940462201
13.099371576088,31.190072315183,5.71560384321096
12.8490712777518,29.9996682723134,6.5826695109474
11.9191505503696,27.2333162394022,9.80400940462204
13.3059486118436,19.0477497788639,5.00000000000004
13.3059486118436,29.047749778864,5.00000000000002
12.8490712777518,18.0958312854145,6.58266951094736
1.74932428481759,10.2637205325814,7.18456584514415
1.74932428481769,25.3426919267053,3.01980662698043E-14
1.74932428481771,40.5477497788639,7.5055534994652
-11.2506757151824,24.0477497788639,5.35646426102922
14.7493242848176,24.0477497788639,5.35646426102918
-1.75067567825317,39.5477485656738,16.4544830322266
3.82932424545288,13.5477495193481,18.9139957427979
11.5638780593872,18.9517936706543,7.96303367614746
5.74932432174683,40.5477485656738,3.07045364379883
-7.25067567825317,40.5477485656738,2.04696917533875
6.74932432174683,34.5477485656738,3.01980662698043E-14
-5.58999824523926,27.232723236084,9.80458068847656
1.74932432174683,27.5477504730225,22.5166606903076
-5.25067567825317,20.5477504730225,3.01980662698043E-14
-6.25067567825317,12.5477495193481,3.01980662698043E-14
-3.25067567825317,37.5477485656738,3.01980662698043E-14
-11.2506761550903,27.1677227020264,2.14563798904419
-11.2506761550903,30.0040626525879,7.13393878936768
-7.75067567825317,9.54774951934814,6.06217765808105
12.8702392578125,16.9065933227539,5.71439409255981
-0.739482343196869,7.5477499961853,17.2429580688477
-10.2884254455566,19.0477504730225,1.66666662693024
1.74932432174683,11.5477495193481,22.5166606903076
-4.75067567825317,7.5477499961853,11.2583303451538
-6.75067567825317,40.5477485656738,7.79422855377197
-11.2506761550903,22.7241249084473,11.5982971191406
13.6667928695679,29.0477504730225,3.21428561210632
-10.2506761550903,31.5477504730225,3.01980662698043E-14
2.26932430267334,15.5477495193481,21.6159934997559
-2.25067567825317,21.5477504730225,3.01980662698043E-14
-2.25067567825317,39.5477485656738,3.01980662698043E-14
5.74932432174683,13.5477495193481,3.01980662698043E-14
14.7493238449097,22.6923007965088,8.61893749237061
2.26932430267334,39.5477485656738,21.6159934997559
-6.25067567825317,7.5477499961853,8.66025447845459
-2.25067567825317,35.5477485656738,3.01980662698043E-14
2.78932428359985,15.5477495193481,20.7153282165527
-8.75067615509033,33.5477485656738,4.33012723922729
14.7493238449097,27.2295684814453,3.45582157996408E-14
6.42932415008545,32.5477485656738,14.410662651062
0.712321519851685,10.2637205123901,15.3954982757568
11.5638780593872,22.5917625427246,11.4707441329956
11.7493238449097,18.5477504730225,3.01980662698043E-14
-3.22828888893127,7.5477499961853,12.9322185516357
13.0172739028931,30.0489368438721,6.53519010543823
-6.25067567825317,14.5477495193481,3.01980662698043E-14
-7.86832237243652,31.3276863098145,5.85840749740601
7.74932432174683,40.5477485656738,2.04696917533875
5.89733552932739,10.2637205123901,3.07909965515137
-10.1888599395752,23.3197555541992,12.1722860336304
5.74932432174683,28.5477504730225,3.01980662698043E-14
2.78632712364197,10.2637205123901,5.13183259963989
3.82332968711853,10.2637205123901,5.13183259963989
-9.25067615509033,35.5477485656738,3.46410155296326
12.625693321228,26.9597244262695,10.0676603317261
-10.2506761550903,24.5477504730225,3.01980662698043E-14
-2.25067567825317,38.5477485656738,3.01980662698043E-14
-11.2506761550903,25.371374130249,11.5982971191406
-9.75067615509033,32.5477485656738,2.5980761051178
-5.25067567825317,40.5477485656738,10.3923044204712
0.749324262142181,12.5477495193481,3.01980662698043E-14
-2.25067567825317,34.5477485656738,3.01980662698043E-14
11.7493238449097,13.5477495193481,3.01980662698043E-14
-10.2506761550903,19.5477504730225,3.01980662698043E-14
-11.2506761550903,19.9568405151367,3.01980662698043E-14
6.74932432174683,40.5477485656738,10.2348461151123
-4.25067567825317,13.5477495193481,3.01980662698043E-14
-1.36168396472931,10.2637205123901,2.0527331829071
-2.75067567825317,38.5477485656738,14.7224321365356
-2.75067567825317,9.54774951934814,14.7224321365356
-3.25067567825317,10.5477495193481,13.856406211853
14.2293243408203,39.5477485656738,0.900666415691376
13.1893243789673,35.5477485656738,2.70199918746948
-2.75067567825317,37.5477485656738,14.7224321365356
5.74932432174683,32.5477485656738,3.01980662698043E-14
9.21574401855469,10.2637205123901,1.77635683940025E-15
4.23813104629517,10.2637205123901,17.2429580688477
4.23813104629517,10.2637205123901,17.2429580688477
14.7493238449097,20.8659324645996,3.11669872581685E-14
0.249324291944504,27.5477504730225,19.9185848236084
1.74932432174683,17.5477504730225,22.5166606903076
0.749324262142181,39.5477485656738,20.7846088409424
9.24932384490967,7.5477499961853,9.52627944946289
-2.75067567825317,22.5477504730225,14.7224321365356
8.74932384490967,40.5477485656738,1.02348458766937
11.7493238449097,11.5477495193481,3.01980662698043E-14
-6.25067567825317,40.5477485656738,2.04696917533875
-2.25067567825317,40.5477485656738,10.2348461151123
6.74932432174683,11.5477495193481,3.01980662698043E-14
-11.2506761550903,19.0477504730225,7.5
-1.23724365234375,7.5477499961853,16.3808097839355
-10.1681442260742,19.0477504730225,6.42857122421265
9.54932403564453,33.5477485656738,9.00666427612305
-2.25067567825317,18.5477504730225,3.01980662698043E-14
4.34932422637939,21.5477504730225,18.0133285522461
-2.25067567825317,31.5477504730225,3.01980662698043E-14
12.7493238449097,36.5477485656738,3.01980662698043E-14
11.0329704284668,24.0477504730225,12.8738279342651
0.749324262142181,22.5477504730225,20.7846088409424
1.74932432174683,14.5477495193481,22.5166606903076
0.256040304899216,10.2637205123901,18.9672546386719
14.7493238449097,27.2258853912354,8.5647554397583
-9.25067615509033,20.5477504730225,3.01980662698043E-14
-4.25067567825317,25.5477504730225,3.01980662698043E-14
-11.2506761550903,27.1677227020264,4.29127597808838
-3.25067567825317,40.5477485656738,2.04696917533875
-11.2506761550903,26.1277313232422,9.65537071228027
0.749324262142181,37.5477485656738,20.7846088409424
-6.25067567825317,27.5477504730225,3.01980662698043E-14
3.30932426452637,33.5477485656738,19.814661026001
-4.47269248962402,10.2637205123901,3.07909965515137
14.7493238449097,17.045373916626,5.57038068771362
7.46932411193848,28.5477504730225,12.6093301773071
-11.2506761550903,27.1677227020264,5.36409521102905
0.753801643848419,10.2637205123901,19.8294010162354
11.2067890167236,10.2637205123901,1.77635683940025E-15
-8.03461456298828,31.0501251220703,5.57038068771362
-1.75067567825317,33.5477485656738,16.4544830322266
0.749324262142181,13.5477495193481,20.7846088409424
1.74932432174683,10.2637205123901,7.18456602096558
-4.75067567825317,37.5477485656738,11.2583303451538
-5.25067567825317,40.5477485656738,3.07045364379883
7.24932432174683,7.5477499961853,12.9903812408447
8.74932384490967,40.5477485656738,2.04696917533875
7.74932432174683,23.5477504730225,3.01980662698043E-14
-6.92054891586304,19.0477504730225,7.5
8.5093240737915,19.5477504730225,10.8079967498779
11.7493238449097,40.5477485656738,5.1961522102356
12.7493238449097,40.5477485656738,2.04696917533875
-9.12704467773438,29.8717002868652,7.2614917755127
11.7493238449097,12.5477495193481,3.01980662698043E-14
10.2112665176392,40.5477485656738,6.03961325396085E-14
-6.21485710144043,7.5477499961853,7.75933122634888
8.5093240737915,8.54774951934814,10.8079967498779
-9.08561229705811,19.0477504730225,5.35714292526245
-7.25067567825317,20.5477504730225,3.01980662698043E-14
-6.75067567825317,30.5477504730225,7.79422855377197
11.7493238449097,26.5477504730225,3.01980662698043E-14
9.02932453155518,30.5477504730225,9.90733051300049
-2.25067567825317,39.5477485656738,15.5884571075439
-2.25067567825317,18.5477504730225,15.5884571075439
0.749324262142181,30.5477504730225,3.01980662698043E-14
12.1493244171143,12.5477495193481,4.50333213806152
10.0693244934082,13.5477495193481,8.10599803924561
9.74932384490967,37.5477485656738,3.01980662698043E-14
10.2112665176392,7.5477499961853,6.89718341827393
7.74932432174683,21.5477504730225,3.01980662698043E-14
13.1893243789673,13.5477495193481,2.70199918746948
-11.2506761550903,19.0477504730225,2.8125
14.7493238449097,24.7095623016357,12.23606300354
13.7093238830566,14.5477495193481,1.80133283138275
13.695595741272,7.5477499961853,0.862147927284241
-1.25067567825317,32.5477485656738,3.01980662698043E-14
-8.25067615509033,29.5477504730225,3.01980662698043E-14
-1.25067567825317,36.5477485656738,17.3205089569092
-8.75067615509033,37.5477485656738,4.33012723922729
-6.60523319244385,24.0477504730225,12.8738279342651
-11.2506761550903,7.5477499961853,0
12.8248233795166,29.0477504730225,3.33333325386047
11.7493238449097,15.5477495193481,3.01980662698043E-14
3.30932426452637,25.5477504730225,19.814661026001
9.74932384490967,15.5477495193481,3.01980662698043E-14
12.1512479782104,30.5495319366455,6.05278539657593
-5.25067567825317,24.5477504730225,3.01980662698043E-14
-10.1681442260742,29.0477504730225,4.2857141494751
-5.25067567825317,20.5477504730225,10.3923044204712
-9.25067615509033,14.5477495193481,3.01980662698043E-14
12.1493244171143,18.5477504730225,4.50333213806152
-8.25067615509033,17.5477504730225,3.01980662698043E-14
12.2023124694824,7.5477499961853,3.44859170913696
1.74932432174683,10.2637205123901,9.2372989654541
1.74932432174683,40.5477485656738,15.3522682189941
3.24932432174683,7.5477499961853,19.9185848236084
2.78932428359985,8.54774951934814,20.7153282165527
9.00834369659424,10.2637205123901,2.0527331829071
2.26932430267334,13.5477495193481,21.6159934997559
8.83549976348877,21.3177738189697,10.2430458068848
4.86932420730591,31.5477504730225,17.1126613616943
14.7493238449097,21.7663440704346,1.82924103736877
8.5093240737915,10.5477495193481,10.8079967498779
5.73141479492188,7.5477499961853,14.6565141677856
-6.25067567825317,40.5477485656738,7.16439199447632
14.7493238449097,30.9644165039063,3.96719705426495E-14
3.74932432174683,26.5477504730225,3.01980662698043E-14
4.74932432174683,38.5477485656738,3.01980662698043E-14
6.22917604446411,40.5477485656738,6.03961325396085E-14
9.59494113922119,19.9527854919434,8.92765426635742
-6.85573387145996,18.587797164917,7.61226224899292
2.74932432174683,25.5477504730225,3.01980662698043E-14
-8.25067615509033,14.5477495193481,5.1961522102356
-10.2506761550903,15.5477495193481,3.01980662698043E-14
14.7493238449097,19.0477504730225,1.875
14.7493238449097,24.0477504730225,12.8738279342651
0.749324262142181,21.5477504730225,3.01980662698043E-14
-11.2506761550903,23.593204498291,3.01980662698043E-14
1.74932432174683,23.5477504730225,22.5166606903076
4.74932432174683,15.5477495193481,3.01980662698043E-14
-11.2506761550903,16.7678127288818,5.85840749740601
2.24708557128906,10.2637205123901,1.77635683940025E-15
-4.25067567825317,40.5477485656738,2.04696917533875
-9.25067615509033,38.5477485656738,3.01980662698043E-14
14.7493238449097,23.4289703369141,7.85449314117432
-8.25067615509033,32.5477485656738,3.01980662698043E-14
-7.36202812194824,17.6778049468994,6.73533487319946
10.7493238449097,40.5477485656738,6.14090728759766
8.74932384490967,7.5477499961853,10.3923044204712
14.7493238449097,20.2930068969727,3.35813021659851
-10.2506761550903,15.5477495193481,1.73205077648163
3.82332968711853,10.2637205123901,6.15819931030273
2.74932432174683,31.5477504730225,3.01980662698043E-14
-11.2506761550903,10.4227495193481,7.54951656745106E-15
2.26932430267334,29.5477504730225,21.6159934997559
12.1493244171143,34.5477485656738,4.50333213806152
13.8202362060547,24.0477504730225,12.8738279342651
1.24932432174683,10.5477495193481,21.650634765625
9.02932453155518,11.5477495193481,9.90733051300049
-5.25067567825317,39.5477485656738,3.01980662698043E-14
-11.2506761550903,19.8877849578857,7.50973320007324
7.98932409286499,28.5477504730225,11.7086629867554
-7.75067567825317,18.5477504730225,6.06217765808105
-1.36168396472931,10.2637205123901,10.2636651992798
-11.2506761550903,21.7750225067139,3.01980662698043E-14
8.48984241485596,8.90573501586914,9.8787784576416
14.2293243408203,17.5477504730225,0.900666415691376
-3.25067567825317,32.5477485656738,13.856406211853
13.6667928695679,19.0477504730225,5.35714292526245
-11.2506761550903,24.0477504730225,6.43691396713257
-10.2506761550903,33.5477485656738,3.01980662698043E-14
9.02932453155518,20.5477504730225,9.90733051300049
12.2023124694824,40.5477485656738,6.03961325396085E-14
-7.25067567825317,37.5477485656738,6.92820310592651
13.6875085830688,23.3197555541992,12.1722860336304
2.24708557128906,10.2637205123901,20.6915493011475
-10.3846502304077,30.0489368438721,6.53519010543823
1.24932432174683,12.5477495193481,21.650634765625
11.6293239593506,8.54774951934814,5.40399837493896
0.749324262142181,33.5477485656738,20.7846088409424
-2.25067567825317,24.5477504730225,3.01980662698043E-14
6.74932432174683,19.5477504730225,3.01980662698043E-14
-11.2506761550903,29.0477504730225,7.5
-0.250675708055496,40.5477485656738,12.2818145751953
-5.50969505310059,8.90573501586914,8.9807071685791
-6.92054891586304,29.0477504730225,7.5
14.7493238449097,27.8111228942871,1.75699770450592
1.74932432174683,38.5477485656738,3.01980662698043E-14
-10.2506761550903,20.5477504730225,3.01980662698043E-14
-9.25067615509033,15.5477495193481,3.46410155296326
-2.25067567825317,40.5477485656738,12.2818145751953
3.82932424545288,25.5477504730225,18.9139957427979
5.74932432174683,40.5477485656738,1.02348458766937
13.7493238449097,32.5477485656738,3.01980662698043E-14
4.74932432174683,40.5477485656738,17.3205089569092
-8.20590209960938,10.2637205123901,4.31073951721191
13.7093238830566,32.5477485656738,1.80133283138275
-10.4466609954834,31.0501251220703,5.57038068771362
-9.64264583587646,17.045373916626,5.57038068771362
-11.2506761550903,24.0477504730225,5.36409521102905
1.74932432174683,33.5477485656738,22.5166606903076
-8.6525993347168,30.0489368438721,6.53519010543823
7.46932411193848,8.54774951934814,12.6093301773071
14.7493238449097,29.0477504730225,7.5
10.7493238449097,16.5477504730225,3.01980662698043E-14
8.74932384490967,21.5477504730225,3.01980662698043E-14
12.1193513870239,10.2637205123901,2.0527331829071
-10.7506761550903,30.5477504730225,0.866025388240814
-10.2506761550903,38.5477485656738,3.01980662698043E-14
6.42932415008545,14.5477495193481,14.410662651062
3.30932426452637,18.5477504730225,19.814661026001
-8.25067615509033,10.5477495193481,5.1961522102356
-4.75067567825317,40.5477485656738,11.2583303451538
3.74932432174683,16.5477504730225,3.01980662698043E-14
-10.7695503234863,29.0477504730225,0.833333313465118
9.74932384490967,40.5477485656738,8.18787670135498
-0.250675708055496,40.5477485656738,7.16439199447632
-11.2506761550903,26.1277313232422,2.14563798904419
-9.25067615509033,31.5477504730225,3.46410155296326
6.22917604446411,10.2637205123901,13.7943668365479
12.625693321228,28.4157123565674,8.66457557678223
-0.739482343196869,7.5477499961853,17.2429580688477
-10.321587562561,24.0477504730225,12.8738279342651
14.7493238449097,17.045373916626,5.57038068771362
-11.2506761550903,24.0477504730225,2.14563798904419
5.38932418823242,32.5477485656738,16.2119960784912
10.7493238449097,14.5477495193481,3.01980662698043E-14
-0.250675708055496,40.5477485656738,15.3522682189941
13.7093238830566,30.5477504730225,1.80133283138275
3.74932432174683,40.5477485656738,9.21136093139648
-10.6947088241577,40.5477485656738,6.03961325396085E-14
-2.25067567825317,11.5477495193481,15.5884571075439
14.7493238449097,29.342248916626,7.77170419692993
12.6693239212036,39.5477485656738,3.6026656627655
14.7493238449097,21.4004993438721,10.3227663040161
1.74932432174683,39.5477485656738,22.5166606903076
5.90932416915894,34.5477485656738,15.3113288879395
-1.25067567825317,12.5477495193481,17.3205089569092
-3.25067567825317,12.5477495193481,3.01980662698043E-14
-8.70366382598877,10.2637205123901,3.44859170913696
14.7493238449097,40.5477485656738,6.03961325396085E-14
-2.39868664741516,10.2637205123901,12.3163986206055
7.74932432174683,40.5477485656738,1.02348458766937
14.7493238449097,23.3911113739014,6.34366512298584
4.74932432174683,14.5477495193481,3.01980662698043E-14
-0.250675708055496,31.5477504730225,19.0525588989258
-10.2506761550903,37.5477485656738,3.01980662698043E-14
-2.2327663898468,10.2637205123901,14.6565141677856
14.7493238449097,20.4065799713135,7.89061498641968
-3.75067567825317,16.5477504730225,12.9903812408447
1.74932432174683,28.5477504730225,22.5166606903076
14.7493238449097,36.7144165039063,5.21064684184513E-14
-6.25067567825317,24.5477504730225,3.01980662698043E-14
14.7493238449097,27.7732639312744,0.246169447898865
7.46932411193848,30.5477504730225,12.6093301773071
-1.25067567825317,7.5477499961853,17.3205089569092
-4.25067567825317,29.5477504730225,3.01980662698043E-14
13.7493238449097,30.5477504730225,3.01980662698043E-14
0.256040304899216,10.2637205123901,1.77635683940025E-15
4.74932432174683,16.5477504730225,3.01980662698043E-14
-10.6947088241577,7.5477499961853,0
11.5638780593872,29.143705368042,7.96303367614746
13.7493238449097,11.5477495193481,3.01980662698043E-14
-4.25067567825317,8.54774951934814,12.1243553161621
-8.25067615509033,37.5477485656738,3.01980662698043E-14
1.23082292079926,8.90573501586914,20.6556262969971
10.5893239974976,13.5477495193481,7.20533132553101
2.26932430267334,11.5477495193481,21.6159934997559
5.90932416915894,20.5477504730225,15.3113288879395
-5.25067567825317,26.5477504730225,3.01980662698043E-14
8.5093240737915,33.5477485656738,10.8079967498779
14.7493238449097,23.3532543182373,4.83283662796021
5.73141479492188,10.2637205123901,14.6565141677856
14.1933574676514,40.5477485656738,6.03961325396085E-14
-10.2506761550903,11.5477495193481,1.73205077648163
14.7493238449097,21.9556331634521,9.38338184356689
10.5020627975464,26.9597244262695,10.0676603317261
0.712321519851685,10.2637205123901,12.3163986206055
10.7493238449097,32.5477485656738,3.01980662698043E-14
4.86932420730591,12.5477495193481,17.1126613616943
-3.22828888893127,10.2637205123901,12.9322185516357
0.256040304899216,10.2637205123901,18.9672546386719
-3.75067567825317,26.5477504730225,12.9903812408447
6.74932432174683,40.5477485656738,2.04696917533875
-7.25067567825317,40.5477485656738,3.07045364379883
4.34932422637939,13.5477495193481,18.0133285522461
-6.92054891586304,19.0477504730225,7.5
0.749324262142181,9.54774951934814,20.7846088409424
-5.71709537506104,40.5477485656738,6.03961325396085E-14
7.46932411193848,33.5477485656738,12.6093301773071
7.74932432174683,11.5477495193481,3.01980662698043E-14
-1.75067567825317,27.5477504730225,16.4544830322266
7.74932432174683,30.5477504730225,3.01980662698043E-14
-1.25067567825317,30.5477504730225,17.3205089569092
-0.324681222438812,10.2637205123901,17.4482307434082
-1.36168396472931,8.90573501586914,16.1652736663818
14.7493238449097,27.0744533538818,2.5214421749115
12.1512479782104,19.0477504730225,7.5
-9.13920497894287,8.90573501586914,2.69421219825745
8.74932384490967,39.5477485656738,3.01980662698043E-14
-0.750675737857819,27.5477504730225,18.1865329742432
-11.2506761550903,29.0477504730225,4.6875
0.712321519851685,10.2637205123901,7.18456602096558
2.74932432174683,40.5477485656738,1.02348458766937
5.38932418823242,21.5477504730225,16.2119960784912
-6.25067567825317,37.5477485656738,8.66025447845459
12.7493238449097,21.5477504730225,3.01980662698043E-14
10.5638475418091,8.90573501586914,6.28649520874023
-10.2506761550903,26.5477504730225,3.01980662698043E-14
-0.250675708055496,40.5477485656738,8.18787670135498
14.7493238449097,25.6011180877686,4.05033111572266
1.74932432174683,10.5477495193481,22.5166606903076
-7.25067567825317,38.5477485656738,6.92820310592651
8.5093240737915,37.5477485656738,10.8079967498779
6.94932413101196,11.5477495193481,13.5099964141846
-9.75067615509033,40.5477485656738,2.5980761051178
6.41583681106567,8.90573501586914,13.4710607528687
12.4944219589233,31.1889057159424,5.71439409255981
-4.25067567825317,7.5477499961853,12.1243553161621
10.7493238449097,33.5477485656738,3.01980662698043E-14
-8.25067615509033,8.54774951934814,5.1961522102356
2.78932428359985,37.5477485656738,20.7153282165527
-1.36168396472931,10.2637205123901,1.02636659145355
11.9620590209961,24.0477504730225,12.8738279342651
-8.25067615509033,37.5477485656738,5.1961522102356
1.24932432174683,24.5477504730225,21.650634765625
3.30932426452637,14.5477495193481,19.814661026001
6.42932415008545,26.5477504730225,14.410662651062
8.74932384490967,7.5477499961853,10.3923044204712
-11.2506761550903,27.1677227020264,8.58255195617676
10.5020627975464,21.1357746124268,10.0676603317261
-5.71709537506104,7.5477499961853,8.62147903442383
10.5020627975464,19.6797866821289,8.66457557678223
-8.25067615509033,12.5477495193481,5.1961522102356
-5.75067567825317,14.5477495193481,9.52627944946289
14.7493238449097,25.4113864898682,3.35892914231448E-14
6.42932415008545,29.5477504730225,14.410662651062
6.93433809280396,10.2637205123901,1.02636659145355
0.749324262142181,40.5477485656738,3.07045364379883
14.7493238449097,21.8042011260986,3.34006929397583
-7.25067567825317,29.5477504730225,3.01980662698043E-14
4.7358922958374,7.5477499961853,16.3808097839355
13.7493238449097,14.5477495193481,3.01980662698043E-14
10.5893239974976,33.5477485656738,7.20533132553101
9.02932453155518,36.5477485656738,9.90733051300049
-11.2506761550903,22.7241249084473,11.5982971191406
5.74932432174683,16.5477504730225,3.01980662698043E-14
-5.75067567825317,28.5477504730225,9.52627944946289
6.94932413101196,20.5477504730225,13.5099964141846
7.74932432174683,31.5477504730225,3.01980662698043E-14
10.7493238449097,30.5477504730225,3.01980662698043E-14
1.74932432174683,28.5477504730225,22.5166606903076
-7.61517524719238,30.8726921081543,6.29687118530273
-1.36168396472931,10.2637205123901,11.2900323867798
-11.2506761550903,31.0501251220703,5.57038068771362
4.7358922958374,7.5477499961853,16.3808097839355
-11.2506761550903,28.6804370880127,8.40946960449219
-3.25067567825317,28.5477504730225,3.01980662698043E-14
0.249324291944504,7.5477499961853,19.9185848236084
-8.00067615509033,16.5477504730225,5.6291651725769
-4.25067567825317,30.5477504730225,3.01980662698043E-14
-4.75067567825317,29.5477504730225,11.2583303451538
1.74932432174683,12.5477495193481,22.5166606903076
11.7493238449097,28.5477504730225,3.01980662698043E-14
-3.75067567825317,30.5477504730225,12.9903812408447
4.34932422637939,16.5477504730225,18.0133285522461
1.74932432174683,11.5477495193481,3.01980662698043E-14
-9.75067615509033,13.5477495193481,2.5980761051178
3.82332968711853,10.2637205123901,11.2900323867798
14.1933574676514,40.5477485656738,6.03961325396085E-14
14.7493238449097,26.6949996948242,10.3227663040161
4.24932432174683,7.5477499961853,18.1865329742432
-9.75067615509033,37.5477485656738,2.5980761051178
0.749324262142181,23.5477504730225,3.01980662698043E-14
-1.25067567825317,25.5477504730225,17.3205089569092
8.5093240737915,18.5477504730225,10.8079967498779
-2.75067567825317,40.5477485656738,14.7224321365356
0.749324262142181,40.5477485656738,2.04696917533875
10.5020627975464,26.2317314147949,10.7692022323608
11.7493238449097,30.5477504730225,3.01980662698043E-14
-11.2506761550903,25.087739944458,10.7281904220581
-7.53432178497314,24.0477504730225,12.8738279342651
-4.57740926742554,25.4127388000488,11.5584363937378
12.6693239212036,32.5477485656738,3.6026656627655
2.26782560348511,8.90573501586914,20.6556262969971
11.2067890167236,7.5477499961853,5.17288732528687
-2.75067567825317,20.5477504730225,14.7224321365356
-1.25067567825317,40.5477485656738,8.18787670135498
14.7493238449097,24.7887325286865,1.79311943054199
-8.25067615509033,12.5477495193481,3.01980662698043E-14
2.26932430267334,22.5477504730225,21.6159934997559
-8.62070369720459,10.2637205123901,3.07909965515137
13.8832988739014,29.5483436584473,7.0175952911377
14.7493238449097,24.8265914916992,3.30394768714905
14.7493238449097,8.50608348846436,2.51650545189761E-15
-3.75067567825317,7.5477499961853,12.9903812408447
13.6667928695679,29.0477504730225,6.42857122421265
12.7493238449097,13.5477495193481,3.01980662698043E-14
5.90932416915894,22.5477504730225,15.3113288879395
-1.25067567825317,22.5477504730225,3.01980662698043E-14
-6.92054891586304,19.0477504730225,7.5
-11.2506761550903,23.0077590942383,1.07281899452209
12.1512479782104,30.0489368438721,6.53519010543823
7.97134065628052,10.2637205123901,1.02636659145355
-11.2506761550903,36.7144165039063,5.0330111579051E-14
14.7493238449097,31.9227504730225,4.17443857259059E-14
0.249324291944504,34.5477485656738,19.9185848236084
-2.25067567825317,19.5477504730225,15.5884571075439
-11.2506761550903,31.0501251220703,5.57038068771362
-1.25067567825317,28.5477504730225,17.3205089569092
-8.06522941589355,25.5037364959717,11.4707441329956
11.6293239593506,31.0477504730225,5.40399837493896
-1.75067567825317,10.5477495193481,16.4544830322266
9.02932453155518,32.5477485656738,9.90733051300049
1.24932432174683,32.5477485656738,21.650634765625
11.5638780593872,28.4157123565674,8.66457557678223
-11.2506761550903,31.9227504730225,3.77475828372553E-14
8.74932384490967,40.5477485656738,6.14090728759766
5.74932432174683,40.5477485656738,6.14090728759766
6.94932413101196,12.5477495193481,13.5099964141846
2.26932430267334,35.5477485656738,21.6159934997559
0.749324262142181,17.5477504730225,20.7846088409424
-7.00341367721558,26.2317314147949,10.7692022323608
4.86932420730591,20.5477504730225,17.1126613616943
9.74932384490967,16.5477504730225,3.01980662698043E-14
0.749324262142181,40.5477485656738,11.2583303451538
3.82932424545288,37.5477485656738,18.9139957427979
-1.75067567825317,26.5477504730225,16.4544830322266
-0.750675737857819,14.5477495193481,18.1865329742432
14.1933574676514,10.2637205123901,1.77635683940025E-15
14.7493238449097,35.7560844421387,5.00340498470631E-14
10.5020627975464,24.7757434844971,12.1722860336304
-9.25067615509033,17.5477504730225,3.46410155296326
-7.25067567825317,40.5477485656738,1.02348458766937
10.6977138519287,29.5483436584473,7.0175952911377
8.74932384490967,17.5477504730225,3.01980662698043E-14
13.1893243789673,39.5477485656738,2.70199918746948
-11.2506761550903,19.9568405151367,3.01980662698043E-14
-7.25067567825317,8.54774951934814,6.92820310592651
14.7493238449097,25.371374130249,11.5982971191406
11.2067890167236,40.5477485656738,6.03961325396085E-14
10.7493238449097,12.5477495193481,3.01980662698043E-14
12.5842609405518,19.0477504730225,5.35714292526245
-6.25067567825317,38.5477485656738,8.66025447845459
-1.25067567825317,12.5477495193481,3.01980662698043E-14
-8.25067615509033,13.5477495193481,5.1961522102356
4.74932432174683,19.5477504730225,3.01980662698043E-14
-0.750675737857819,18.5477504730225,18.1865329742432
-11.2506761550903,8.50608348846436,2.51650545189761E-15
-4.25067567825317,33.5477485656738,12.1243553161621
9.00834369659424,10.2637205123901,6.15819931030273
12.625693321228,18.2238006591797,7.2614917755127
5.90932416915894,14.5477495193481,15.3113288879395
14.7493238449097,40.5477485656738,6.03961325396085E-14
-2.25067567825317,33.5477485656738,15.5884571075439
4.74932432174683,40.5477485656738,14.3287839889526
-0.250675708055496,22.5477504730225,3.01980662698043E-14
-1.25067567825317,37.5477485656738,3.01980662698043E-14
2.74932432174683,40.5477485656738,14.3287839889526
12.7493238449097,35.5477485656738,3.01980662698043E-14
-5.25067567825317,40.5477485656738,1.02348458766937
3.74932432174683,40.5477485656738,2.04696917533875
9.00834369659424,10.2637205123901,4.10546636581421
1.74932432174683,40.5477485656738,13.3052997589111
4.86932420730591,25.5477504730225,17.1126613616943
-8.75067615509033,34.5477485656738,4.33012723922729
7.97134065628052,8.90573501586914,10.7768487930298
-3.95419096946716,8.90573501586914,11.674919128418
6.42932415008545,19.5477504730225,14.410662651062
-8.70366382598877,10.2637205123901,1.77635683940025E-15
-10.1232242584229,31.1889057159424,5.71439409255981
-6.25067567825317,28.5477504730225,3.01980662698043E-14
9.02932453155518,17.5477504730225,9.90733051300049
-4.25067567825317,37.5477485656738,3.01980662698043E-14
1.74932432174683,23.5477504730225,3.01980662698043E-14
-9.20142459869385,7.5477499961853,2.58644366264343
0.753801643848419,7.5477499961853,19.8294010162354
14.7493238449097,19.0477504730225,2.8125
-1.25067567825317,40.5477485656738,14.3287839889526
-3.75067567825317,28.5477504730225,12.9903812408447
4.34932422637939,39.5477485656738,18.0133285522461
-3.75067567825317,38.5477485656738,12.9903812408447
-11.2506761550903,17.4296245574951,6.49617290496826
1.74932432174683,10.2637205123901,11.2900323867798
4.86932420730591,11.5477495193481,17.1126613616943
13.0172739028931,29.5483436584473,7.0175952911377
4.86033248901367,10.2637205123901,10.2636651992798
0.749324262142181,11.5477495193481,3.01980662698043E-14
-11.2506761550903,29.0477504730225,5.625
-9.69918632507324,7.5477499961853,1.72429585456848
7.74932432174683,39.5477485656738,3.01980662698043E-14
-6.25067567825317,40.5477485656738,8.66025447845459
11.7427883148193,16.9065933227539,5.71439409255981
10.5893239974976,15.5477495193481,7.20533132553101
-1.75067567825317,34.5477485656738,16.4544830322266
-1.25067567825317,28.5477504730225,3.01980662698043E-14
10.5893239974976,32.5477485656738,7.20533132553101
4.23813104629517,40.5477485656738,6.03961325396085E-14
-9.25067615509033,40.5477485656738,3.07045364379883
13.7493238449097,38.5477485656738,3.01980662698043E-14
9.74932384490967,39.5477485656738,3.01980662698043E-14
4.74932432174683,40.5477485656738,11.2583303451538
6.94932413101196,31.5477504730225,13.5099964141846
4.86033248901367,10.2637205123901,5.13183259963989
0.749324262142181,11.5477495193481,20.7846088409424
5.38932418823242,11.5477495193481,16.2119960784912
0.193820148706436,8.90573501586914,18.8594856262207
-7.78657388687134,30.0489368438721,6.53519010543823
-7.25067567825317,31.5477504730225,6.92820310592651
-11.2506761550903,28.2077140808105,8.58255195617676
-6.25067567825317,40.5477485656738,5.11742305755615
7.74932432174683,18.5477504730225,3.01980662698043E-14
-1.25067567825317,24.5477504730225,3.01980662698043E-14
4.24932432174683,40.5477485656738,18.1865329742432
-8.25067615509033,31.5477504730225,5.1961522102356
-1.25067567825317,14.5477495193481,17.3205089569092
3.74932432174683,25.5477504730225,3.01980662698043E-14
-1.25067567825317,38.5477485656738,17.3205089569092
5.38932418823242,37.5477485656738,16.2119960784912
14.2293243408203,11.5477495193481,0.900666415691376
9.08864688873291,20.8627777099609,9.80458164215088
1.24932432174683,16.5477504730225,21.650634765625
9.02932453155518,35.5477485656738,9.90733051300049
5.89733552932739,10.2637205123901,9.2372989654541
-11.2506761550903,19.0477504730225,2.8125
13.0581474304199,31.3276863098145,5.85840749740601
11.5638780593872,21.8637676239014,10.7692022323608
7.72246026992798,7.5477499961853,11.2079229354858
1.74932432174683,38.5477485656738,22.5166606903076
-5.71709537506104,10.2637205123901,8.62147903442383
0.712321519851685,10.2637205123901,4.10546636581421
3.82932424545288,11.5477495193481,18.9139957427979
-4.47269248962402,10.2637205123901,2.0527331829071
-4.25067567825317,10.5477495193481,3.01980662698043E-14
4.74932432174683,39.5477485656738,3.01980662698043E-14
11.7493238449097,37.5477485656738,3.01980662698043E-14
8.74932384490967,10.5477495193481,3.01980662698043E-14
2.78632712364197,10.2637205123901,18.4745979309082
-9.12704467773438,29.143705368042,7.96303367614746
5.74932432174683,15.5477495193481,3.01980662698043E-14
8.5093240737915,28.5477504730225,10.8079967498779
-1.23724365234375,10.2637205123901,16.3808097839355
-7.25067567825317,37.5477485656738,3.01980662698043E-14
4.23813104629517,40.5477485656738,6.03961325396085E-14
9.44024658203125,23.3197555541992,12.1722860336304
3.82332968711853,10.2637205123901,9.2372989654541
6.74932432174683,38.5477485656738,3.01980662698043E-14
12.8248233795166,29.0477504730225,3.33333325386047
-1.75067567825317,31.5477504730225,16.4544830322266
-11.2506761550903,19.8877849578857,8.58255195617676
-5.25067567825317,36.5477485656738,10.3923044204712
-2.25067567825317,12.5477495193481,15.5884571075439
9.74932384490967,26.5477504730225,3.01980662698043E-14
11.1093244552612,15.5477495193481,6.30466508865356
-7.75067567825317,32.5477485656738,6.06217765808105
13.6875085830688,18.9517936706543,7.96303367614746
11.1093244552612,34.5477485656738,6.30466508865356
4.74932432174683,40.5477485656738,9.21136093139648
12.6693239212036,34.5477485656738,3.6026656627655
-5.33685111999512,21.3177719116211,10.2430448532104
-8.25067615509033,14.5477495193481,3.01980662698043E-14
8.74932384490967,15.5477495193481,3.01980662698043E-14
-5.25067567825317,12.5477495193481,10.3923044204712
5.74932432174683,40.5477485656738,9.21136093139648
7.31661605834961,24.0477504730225,12.8738279342651
-8.36392402648926,19.0477504730225,5
10.0693244934082,39.5477485656738,8.10599803924561
-6.75067567825317,31.5477504730225,7.79422855377197
2.24932432174683,7.5477499961853,21.650634765625
9.54932403564453,28.5477504730225,9.00666427612305
4.34932422637939,28.5477504730225,18.0133285522461
-5.94159841537476,26.9597244262695,10.0676603317261
2.74932432174683,7.5477499961853,20.7846088409424
10.0453462600708,10.2637205123901,6.15819931030273
-11.2506761550903,21.7750225067139,3.01980662698043E-14
1.74932432174683,40.5477485656738,5.11742305755615
-7.86832237243652,16.7678127288818,5.85840749740601
7.97134065628052,10.2637205123901,7.18456602096558
-1.25067567825317,33.5477485656738,3.01980662698043E-14
11.7493238449097,40.5477485656738,4.09393835067749
3.74036955833435,10.2637205123901,18.1051063537598
-8.25067615509033,40.5477485656738,4.09393835067749
10.7493238449097,40.5477485656738,6.92820310592651
9.84808826446533,28.5977096557617,8.48919010162354
7.97134065628052,10.2637205123901,3.07909965515137
-9.75067615509033,33.5477485656738,2.5980761051178
12.7493238449097,31.5477504730225,3.01980662698043E-14
13.1978349685669,40.5477485656738,6.03961325396085E-14
1.74932432174683,10.2637205123901,3.07909965515137
4.34932422637939,17.5477504730225,18.0133285522461
14.7493238449097,28.5477905273438,0.992553174495697
1.74932432174683,13.5477495193481,22.5166606903076
-1.25067567825317,18.5477504730225,17.3205089569092
1.74932432174683,29.5477504730225,3.01980662698043E-14
-8.75067615509033,18.5477504730225,4.33012723922729
-2.25067567825317,29.5477504730225,15.5884571075439
5.90932416915894,12.5477495193481,15.3113288879395
-2.75067567825317,26.5477504730225,14.7224321365356
-6.25067567825317,33.5477485656738,8.66025447845459
-9.75067615509033,36.5477485656738,2.5980761051178
13.8832988739014,19.0477504730225,7.5
-1.25067567825317,34.5477485656738,3.01980662698043E-14
-4.25067567825317,15.5477495193481,12.1243553161621
4.86932420730591,15.5477495193481,17.1126613616943
14.7493238449097,26.3204765319824,3.40737536113928E-14
-2.39868664741516,10.2637205123901,6.15819931030273
14.7493238449097,7.5477499961853,0
8.74932384490967,22.5477504730225,3.01980662698043E-14
3.24260830879211,10.2637205123901,18.9672546386719
-4.83055639266968,22.2277641296387,11.1199722290039
-5.25067567825317,29.5477504730225,10.3923044204712
-4.25067567825317,33.5477485656738,3.01980662698043E-14
-7.25067567825317,16.5477504730225,6.92820310592651
-4.75067567825317,15.5477495193481,11.2583303451538
1.74932432174683,18.5477504730225,3.01980662698043E-14
13.1893243789673,11.5477495193481,2.70199918746948
4.74932432174683,40.5477485656738,15.3522682189941
13.7493238449097,17.5477504730225,3.01980662698043E-14
11.6008501052856,8.90573501586914,4.49035358428955
-5.25067567825317,14.5477495193481,3.01980662698043E-14
7.74932432174683,20.5477504730225,3.01980662698043E-14
-9.75067615509033,12.5477495193481,2.5980761051178
11.704550743103,7.5477499961853,4.31073951721191
-8.75067615509033,32.5477485656738,4.33012723922729
-5.75067567825317,38.5477485656738,9.52627944946289
8.32920455932617,22.2277660369873,11.1199731826782
-2.75067567825317,29.5477504730225,14.7224321365356
13.8832988739014,30.0489368438721,6.53519010543823
-5.8431453704834,27.6877193450928,9.36611747741699
1.74932432174683,32.5477485656738,22.5166606903076
0.249324291944504,37.5477485656738,19.9185848236084
-3.72605037689209,40.5477485656738,6.03961325396085E-14
9.54932403564453,32.5477485656738,9.00666427612305
-3.4356894493103,10.2637205123901,7.18456602096558
6.74932432174683,30.5477504730225,3.01980662698043E-14
5.89733552932739,10.2637205123901,12.3163986206055
-11.2506761550903,35.7560844421387,4.78136037978128E-14
-5.25067567825317,16.5477504730225,10.3923044204712
13.6667928695679,19.0477504730225,4.2857141494751
11.1093244552612,38.5477485656738,6.30466508865356
-1.25067567825317,13.5477495193481,3.01980662698043E-14
4.23813104629517,7.5477499961853,17.2429580688477
10.8606767654419,17.6778049468994,6.73533535003662
-0.241721004247665,10.2637205123901,18.1051063537598
1.74932432174683,40.5477485656738,17.3992385864258
2.78932428359985,19.5477504730225,20.7153282165527
9.02932453155518,34.5477485656738,9.90733051300049
-0.739482343196869,40.5477485656738,6.03961325396085E-14
9.02932453155518,8.54774951934814,9.90733051300049
-11.2506761550903,34.7977485656738,4.52970994047064E-14
14.7493238449097,19.0477504730225,7.5
-10.2506761550903,40.5477485656738,1.73205077648163
10.7493238449097,31.5477504730225,3.01980662698043E-14
-8.25067615509033,31.0477504730225,5.1961522102356
4.86033248901367,10.2637205123901,3.07909965515137
-8.75067615509033,36.5477485656738,4.33012723922729
4.34932422637939,33.5477485656738,18.0133285522461
4.74932432174683,7.5477499961853,17.3205089569092
-2.73052763938904,10.2637205123901,1.77635683940025E-15
-7.1088809967041,29.9626998901367,7.17379856109619
1.74932432174683,10.2637205123901,15.3954982757568
-9.20142459869385,10.2637205123901,2.58644366264343
11.5638780593872,29.8717002868652,7.2614917755127
-0.750675737857819,7.5477499961853,18.1865329742432
3.82932424545288,15.5477495193481,18.9139957427979
-8.20590209960938,10.2637205123901,4.31073951721191
-11.2506761550903,31.3276863098145,5.85840749740601
14.7493238449097,29.0477504730225,3.75
7.46932411193848,38.5477485656738,12.6093301773071
7.74932432174683,40.5477485656738,12.1243553161621
-3.4356894493103,10.2637205123901,4.10546636581421
13.1978349685669,10.2637205123901,1.72429585456848
-7.75067567825317,7.5477499961853,6.06217765808105
2.7448468208313,7.5477499961853,19.8294010162354
4.24932432174683,40.5477485656738,18.1865329742432
-4.75067567825317,9.54774951934814,11.2583303451538
-0.250675708055496,28.5477504730225,19.0525588989258
11.7493238449097,40.5477485656738,5.1961522102356
-11.2506761550903,25.087739944458,3.21845698356628
11.6293239593506,13.5477495193481,5.40399837493896
2.74932432174683,40.5477485656738,20.7846088409424
10.0693244934082,12.5477495193481,8.10599803924561
-4.25067567825317,39.5477485656738,12.1243553161621
-9.51862525939941,17.5459671020508,6.05278539657593
12.1493244171143,35.5477485656738,4.50333213806152
-8.25067615509033,18.5477504730225,5.1961522102356
6.93433809280396,10.2637205123901,7.18456602096558
-10.1681442260742,19.0477504730225,5.35714292526245
14.7493238449097,27.1501693725586,5.54309892654419
-7.75067567825317,13.5477495193481,6.06217765808105
-1.25067567825317,40.5477485656738,17.3205089569092
14.7493238449097,22.5030117034912,1.0647965669632
7.74932432174683,40.5477485656738,9.21136093139648
12.7493238449097,37.5477485656738,3.01980662698043E-14
-4.47269248962402,10.2637205123901,1.02636659145355
-0.250675708055496,26.5477504730225,19.0525588989258
-9.75067615509033,30.5477504730225,2.5980761051178
-11.2506761550903,22.6841125488281,3.01980662698043E-14
1.2515629529953,7.5477499961853,20.6915493011475
-10.7506761550903,17.5477504730225,0.866025388240814
7.46932411193848,20.5477504730225,12.6093301773071
-6.21485710144043,10.2637205123901,7.75933122634888
14.2293243408203,35.5477485656738,0.900666415691376
8.74932384490967,38.5477485656738,3.01980662698043E-14
-8.25067615509033,22.5477504730225,3.01980662698043E-14
14.7493238449097,30.9644165039063,3.96719705426495E-14
8.32920455932617,25.8677349090576,11.1199731826782
-9.25067615509033,34.5477485656738,3.01980662698043E-14
-8.25067615509033,15.5477495193481,5.1961522102356
4.86033248901367,10.2637205123901,15.3954982757568
1.74932432174683,24.5477504730225,22.5166606903076
14.7493238449097,23.2396812438965,0.300351977348328
-8.75067615509033,14.5477495193481,4.33012723922729
-3.25067567825317,13.5477495193481,3.01980662698043E-14
6.42932415008545,24.5477504730225,14.410662651062
-11.2506761550903,26.6949996948242,10.3227663040161
-3.25067567825317,27.5477504730225,3.01980662698043E-14
11.5638780593872,26.2317314147949,10.7692022323608
2.78632712364197,8.90573501586914,19.7575569152832
-8.10220146179199,8.90573501586914,4.49035358428955
5.90932416915894,36.5477485656738,15.3113288879395
11.7493238449097,36.5477485656738,3.01980662698043E-14
12.7493238449097,34.5477485656738,3.01980662698043E-14
9.54932403564453,38.5477485656738,9.00666427612305
-10.7506761550903,11.5477495193481,0.866025388240814
14.7493238449097,24.9780216217041,9.34726047515869
-10.6947088241577,10.2637205123901,1.77635683940025E-15
6.74932432174683,16.5477504730225,3.01980662698043E-14
3.74932432174683,12.5477495193481,3.01980662698043E-14
-9.12704467773438,21.8637676239014,10.7692022323608
14.7493238449097,33.8394165039063,4.58892194805504E-14
8.83549976348877,26.7777271270752,10.2430458068848
8.07605743408203,22.6827621459961,11.5584363937378
-5.25067567825317,17.5477504730225,3.01980662698043E-14
14.7493238449097,25.7525482177734,10.0936441421509
14.7493238449097,16.7678127288818,5.85840749740601
0.712321519851685,10.2637205123901,9.2372989654541
11.2493238449097,7.5477499961853,6.06217765808105
-0.241721004247665,7.5477499961853,18.1051063537598
-3.25067567825317,24.5477504730225,3.01980662698043E-14
-11.2506761550903,29.0477504730225,1.875
13.6218729019165,16.9065933227539,5.71439409255981
7.74932432174683,14.5477495193481,3.01980662698043E-14
7.46932411193848,21.5477504730225,12.6093301773071
-7.25067567825317,15.5477495193481,3.01980662698043E-14
-4.25067567825317,40.5477485656738,7.16439199447632
-0.750675737857819,17.5477504730225,18.1865329742432
5.38932418823242,18.5477504730225,16.2119960784912
10.8606767654419,17.6778049468994,6.73533535003662
-9.25067615509033,16.5477504730225,3.01980662698043E-14
7.46932411193848,13.5477495193481,12.6093301773071
-8.25067615509033,34.5477485656738,3.01980662698043E-14
1.74932432174683,33.5477485656738,3.01980662698043E-14
6.74932432174683,33.5477485656738,3.01980662698043E-14
7.74932432174683,40.5477485656738,11.2583303451538
-10.1888599395752,27.6877193450928,9.36611747741699
3.74932432174683,34.5477485656738,3.01980662698043E-14
5.74932432174683,40.5477485656738,11.2583303451538
4.74932432174683,40.5477485656738,17.3205089569092
0.749324262142181,26.5477504730225,20.7846088409424
14.7493238449097,23.593204498291,3.26203704347806E-14
-7.36202812194824,30.4176959991455,6.73533487319946
1.74932432174683,14.5477495193481,22.5166606903076
