0.43810428054996586, 0.6760673308635557, 0.13565540715666824 
0.9044345721786302, 0.04209052156450721, 0.19826407404732405 
0.5228142616581083, 0.6321842442217654, 0.0018883710488467598 
0.23447055348419843, 0.8762955823428612, 0.5165883717222585 
0.8305971040943747, 0.7368340621791596, 0.7290623901964886 
0.3067015120646226, 0.22539254837944567, 0.6431752007104876 
0.4101780771578045, 0.7363073143795567, 0.8257144648295245 
0.025296202114585054, 0.07508525579590619, 0.5529914488907266 
0.4085685904941563, 0.03822192195462326, 0.30681939663839075 
0.46544912708797914, 0.34512105273546545, 0.3657534097673768 
0.4730319914498472, 0.6991691508441291, 0.007501784910705744 
0.7201814208812037, 0.4670076452453592, 0.05888193775402706 
0.4597451402405158, 0.5499474758039706, 0.37057528265355255 
0.26408730303291095, 0.39118631936457704, 0.17644522231470394 
0.4341430041274773, 0.04672356795715826, 0.8467197178864513 
0.08063431244639185, 0.792836311593911, 0.493250356981208 
0.452744766108808, 0.43018444354443297, 0.6844539864547377 
0.3706402534655686, 0.1710483931525817, 0.11854258875735335 
0.5675008332349074, 0.433971513452023, 0.33087510035194057 
0.31424373940455264, 0.39722397296830336, 0.642694912053055 
0.9531103405725392, 0.3779053148457161, 0.12405392440543961 
0.423408342418623, 0.8053397362234995, 0.404347327013996 
0.46711934845586567, 0.5714696066086208, 0.20263588200187022 
0.9257134157018764, 0.21685007579328786, 0.26279718686828135 
0.2395921127220978, 0.2821150656167124, 0.05993705303771746 
0.6988288885186633, 0.32839505917417333, 0.29878108402279013 
0.5837958219293882, 0.01758640329898853, 0.23064126211992098 
0.5290714720316867, 0.7905823790110365, 0.40852816138881476 
0.46571318216332624, 0.37790508563771197, 0.011848609826835887 
0.7302378100149837, 0.32719664057923803, 0.01613805669575885 
0.5464976478044542, 0.12928174629962064, 0.8090841078365909 
0.9974930351561461, 0.9160653302839317, 0.289597862386458 
0.37451276012633317, 0.3451521375617771, 0.2267415430016817 
0.20702846740126335, 0.08607404275670694, 0.6023208130059432 
0.7362291960990598, 0.03690526488389101, 0.6056654843607536 
0.5268153992137616, 0.9214408040491292, 0.2522171776103199 
0.4762961022470873, 0.36371790164420437, 0.5477114248296497 
0.31774637550289386, 0.3257485965508816, 0.7175719855601588 
0.8590400970848093, 0.4461130851131697, 0.12602854335954738 
0.03685918133270105, 0.5491596563367543, 0.31492422007307097 
0.7875734937019048, 0.11687397542050282, 0.3047526909725392 
0.2909042796779939, 0.8003896807084228, 0.26477199804557605 
0.3422557946704897, 0.3848454967343937, 0.9942330163270142 
0.909225101020163, 0.7954269474315891, 0.236593301198044 
0.8565490964027411, 0.9893662563352318, 0.8673506771530582 
0.12881399010473582, 0.1985199585399825, 0.6917448489787044 
0.42028079421339426, 0.271184584213775, 0.3336991353029982 
0.21143665482271923, 0.5976455222434036, 0.2681959194626007 
0.31746038008070954, 0.03903982160730368, 0.6748802941478893 
0.5706948834273692, 0.0449407152252691, 0.7979009303046082 
0.8615104791316879, 0.9843750946337468, 0.7761807566091918 
0.219193446505071, 0.0016487874087047771, 0.4353640782336574 
0.6378635474001871, 0.6799499662554606, 0.8159829529756212 
0.14446188890332867, 0.8043024186911278, 0.9368580587959484 
0.10299244690183784, 0.013372565810896075, 0.17784537950927237 
0.4006874703708473, 0.70949259712354, 0.17297608004204068 
0.6060048329341179, 0.6227972751093059, 0.8002141660035774 
0.9011237926293959, 0.18012587938861335, 0.24044224348558219 
0.2970239578014028, 0.8847343254486774, 0.0775225834411154 
0.7270620268521824, 0.4716324236087952, 0.3556267051643355 
0.32548225277144005, 0.6845714723922548, 0.6221763286882538 
0.7027847791153845, 0.4782897078191537, 0.9102351064608672 
0.4728607905584936, 0.8693748452328722, 0.375028158054139 
0.9035882700209436, 0.3656218092440139, 0.43353575154091006 
0.22967440627230884, 0.3549311140432998, 0.15985743055884383 
0.3362737922581539, 0.7929062527452594, 0.9977979082057501 
0.6241034366749227, 0.07635101997812743, 0.5221370243599285 
0.760710333050012, 0.7058403475009741, 0.08161267846472697 
0.47336984569946816, 0.5363248126874448, 0.7264114844136434 
0.18591987794269238, 0.06115020315170816, 0.8588215906191876 
0.665444238474584, 0.9136004881196397, 0.2535576784015543 
0.39297957316432264, 0.49867911277577426, 0.03808360817713319 
0.7940168122517008, 0.5386776823667296, 0.17125219946227743 
0.8142102712408608, 0.049924290252575165, 0.5269688241363654 
0.8677145204559839, 0.3910835182602339, 0.756709554166196 
0.7820600317625306, 0.953965960657376, 0.9851348038793822 
0.9588578135085742, 0.8572869294786093, 0.434245111039236 
0.6394580314224142, 0.36827581232472917, 0.9194786310626722 
0.10473593154252447, 0.4777246954957034, 0.3530842736355694 
0.9440452981730199, 0.5608023444516493, 0.31751764966397833 
0.40506799525728376, 0.6321885079144979, 0.5988038694510032 
0.4434386512679569, 0.8998913163094483, 0.09501958605372274 
0.5769123184177983, 0.2370540991849518, 0.8691371771659882 
0.8018166149342292, 0.8728213525930195, 0.3769563302969613 
0.48302707342199, 0.27852683342104956, 0.6917598492819041 
0.5801438441897042, 0.3420678026192756, 0.023469881064632436 
0.05783129337442183, 0.018339619316421474, 0.017135232359235086 
0.31718586167529594, 0.5175746102448222, 0.44515038281411634 
0.3988525906180741, 0.12283752352813793, 0.2900171950306064 
0.40558893558775155, 0.24622806112579898, 0.8708979701304315 
0.14015812027553642, 0.7261815095480941, 0.8691208548557501 
0.7957139050837271, 0.594506882479712, 0.3892981495254427 
0.2092461968298508, 0.056249584937273944, 0.046920837477539945 
0.579364720043, 0.03257705063956584, 0.14262536660320035 
0.051450302925278635, 0.5654538544451022, 0.6748958367089471 
0.033846054207181786, 0.6271986676977561, 0.7329515674998041 
0.0465245551493948, 0.5860409847087991, 0.5687629577156201 
0.742538811850241, 0.17288100150832786, 0.8619569013096358 
0.48663182736294686, 0.16610721209031842, 0.4783028207679799 
0.7809448287060207, 0.1888849871460737, 0.7438459028567806 
0.030178237367004757, 0.5271252981438319, 0.22793186210642513 
0.8471829361363035, 0.38461495918890787, 0.3754264858346047 
0.7418909720319963, 0.7491352109595272, 0.8903807975589417 
0.940865141246726, 0.7311345181541603, 0.7265223346977486 
0.7823461880561636, 0.6826018528392767, 0.026826940296128976 
0.2284246726811423, 0.537183731471995, 0.3598985449861518 
0.10495969341608025, 0.7568058243868603, 0.3534588711950527 
0.786056071102044, 0.17664752462364597, 0.243122536428514 
0.30371239650326676, 0.7792646049839973, 0.5158002477101737 
0.06099132024113674, 0.8816895211997989, 0.44582347152256063 
0.44628631691363263, 0.06915027480017466, 0.6942476898615217 
0.5433022100695729, 0.7561681357442869, 0.9882235201014408 
0.9729084451041846, 0.4339018665549924, 0.8062314719942695 
0.43080371869084566, 0.3410739376711499, 0.9374660234897949 
0.4622397608028731, 0.8654290727188014, 0.4206086576299136 
0.13177356914864224, 0.677708265658701, 0.9040231263944583 
0.16695485003170452, 0.737818133903985, 0.8954483732807319 
0.7192801936680482, 0.8882630550376905, 0.19679417594649562 
0.9336954037242461, 0.8258662142147589, 0.7500830900610264 
0.7212482253975286, 0.5817731399020032, 0.5445005423831752 
0.13737782145255117, 0.8744252610197734, 0.48813292483099435 
0.006281708706696754, 0.266926137412705, 0.5939579879525663 
0.7896220694427538, 0.2521830766657014, 0.5943385000282265 
0.8976066922501317, 0.8872084870873815, 0.6440769492846167 
0.18252040776614542, 0.6310553152674027, 0.46638584268658534 
0.05000989714221671, 0.21705424517139504, 0.1409280771087139 
0.12976425631711264, 0.6719943659746607, 0.6879500479771754 
0.7043775649180815, 0.34794824486218934, 0.49559361637603827 
0.9249985740844834, 0.7309774079728805, 0.7114164262964843 
0.1943187323699983, 0.7481227513199004, 0.1330807184920434 
0.7592407337495554, 0.6649201562101408, 0.7074099197202321 
0.33667952967930026, 0.7467433094521878, 0.44812207466068044 
0.7944590516803064, 0.921868526475638, 0.2444791894624595 
0.6965159092717984, 0.6502555154922068, 0.7807537000762754 
0.4300901066311378, 0.504228159197489, 0.2570776914499886 
0.483537747976137, 0.17447331600679528, 0.19776630075909662 
0.44946128844216027, 0.33406346298836476, 0.2265007080539091 
0.518142765749398, 0.03924305295291808, 0.08182027820073468 
0.15299026353844358, 0.029696894246160177, 0.10250288687124565 
0.37517625295974755, 0.6131608127578343, 0.5751351681405977 
0.8830474616359101, 0.18228853497349784, 0.38353613684729726 
0.8590829736594224, 0.29687319701694515, 0.657474145558548 
0.11872215506897776, 0.17743373571846477, 0.1910372649558587 
0.9789377419645596, 0.2635285190092833, 0.6295035441579173 
0.9880827229976973, 0.10231826878289829, 0.4257736122805418 
0.24298213756805453, 0.2595854554525525, 0.8515305422751165 
0.3348215210591585, 0.056160848388560614, 0.8917009439674103 
0.7352817143688184, 0.6324103358347531, 0.17066838649181015 
0.2922248881454522, 0.6205471092570568, 0.8978555933888648 
0.04763171501954322, 0.807833476058929, 0.672506500876674 
0.06567828295299649, 0.5381907766437651, 0.547478810106679 
0.6519697265310767, 0.868215249314259, 0.718807139830877 
0.7888204097889424, 0.3281173804334928, 0.7730736574821773 
0.15409149415872248, 0.41778768394735943, 0.16593784943081047 
0.7444544760464449, 0.42226719551779657, 0.45469221584877717 
0.11776343695466962, 0.4029675408960669, 0.032877576127560926 
0.734868203314668, 0.3722943259554725, 0.9603865504687149 
0.9816130977560147, 0.9308356158154795, 0.9461833913508374 
0.4719198477988935, 0.3361467710997622, 0.9323524803681205 
0.5706114919807171, 0.13193229644647264, 0.416454664249451 
0.07776451247271288, 0.6965285366113511, 0.12919909119511597 
0.011370070840048041, 0.7623617799767074, 0.2818167068409466 
0.3682938024666026, 0.15607906080821832, 0.7024888222076602 
0.40011860400113264, 0.5410781913147829, 0.2954285112794439 
0.98977993011817, 0.5671063276553738, 0.1359586760276258 
0.733138063213468, 0.8252594534483897, 0.9615009777012824 
0.7348152767630357, 0.8718656589739477, 0.5814965344009009 
0.5075015937503558, 0.8657891646038309, 0.41723830888598357 
0.0993427434498122, 0.13313631362737388, 0.13603506841285573 
0.10728761102236894, 0.5014437659147076, 0.9430478238545726 
0.6063329166513413, 0.8869909737365702, 0.8905930212785375 
0.9430566967764513, 0.3328983322121637, 0.7221552428279528 
0.15892097320535603, 0.06502200683246284, 0.3600561100694034 
0.6926195651800641, 0.6031434519406444, 0.04990011546257922 
0.5211094958551835, 0.19984109151038765, 0.8021130218836664 
0.4080665089326593, 0.22602268002489945, 0.09021412388067396 
0.8832873796099855, 0.020318131404493567, 0.6085837900905303 
0.11972405514320361, 0.8477936715161708, 0.07841063262866832 
0.4652575800869122, 0.3191254546455853, 0.44422233512724263 
0.5572153104161477, 0.07975827136388347, 0.42708042855124717 
0.11031067328606292, 0.5121461082715153, 0.5596557330063592 
0.4193728228663892, 0.8652776965444573, 0.7717579844908872 
0.3298277452309383, 0.7979160850967459, 0.220273572127215 
0.03645553448960637, 0.713992446718575, 0.43837926125520243 
0.3603169389565858, 0.021100606531686883, 0.1760662982031571 
0.17472501442767285, 0.13305005407998827, 0.25613913142274713 
0.9256008814651218, 0.15089165579905595, 0.716293304090189 
0.6084972413263078, 0.13870325617859824, 0.9100737718232513 
0.743963052708029, 0.4130495625837569, 0.710292473595706 
0.5852808501753919, 0.3774944573443364, 0.07795207824388084 
0.10001095992485143, 0.44565572391464636, 0.03664573628410139 
0.5393861450187186, 0.20676949376736253, 0.6166539214284132 
0.7056702798328848, 0.658383344227159, 0.2486106851157731 
0.7649421523293196, 0.1700230998899528, 0.7382802526519096 
0.4071803788939421, 0.9739617615625981, 0.4717175220162152 
0.18619470757109768, 0.8047250955351952, 0.152074883260234 
0.003925177736103902, 0.8105425456349337, 0.988717461331377 
0.24665993145231224, 0.9364551104440638, 0.01569666199612374 
0.8079890046093238, 0.041102753663605274, 0.7864385442621938 
0.8989743653096016, 0.04339697516988372, 0.12764026947033358 
0.8000300415217224, 0.5401492192440228, 0.33430834133693754 
0.2738358474353957, 0.2165678355739188, 0.1796049648703324 
0.693742420545368, 0.7575731179438718, 0.7174207831243896 
0.9757487366976301, 0.48432400155483635, 0.9277896530907463 
0.2948837904159324, 0.04115055491046227, 0.40105824127094203 
0.907126472178168, 0.9268215011164406, 0.1077643285970955 
0.05362227059998692, 0.9025377419692411, 0.47746435714395274 
0.15201181962037946, 0.1603062157626971, 0.9861798746817687 
0.022447332658549035, 0.8024840906273222, 0.02977982852872152 
0.9501225811711522, 0.9585834419317358, 0.24116033865254516 
0.35738046417320646, 0.3596949360821692, 0.5674178412002724 
0.0661530459165941, 0.7870550667921771, 0.5899893206382054 
0.6287692933022301, 0.43722158304062775, 0.34245773918507927 
0.9886579542050944, 0.7143679004459694, 0.22384668816488373 
0.6939802017607366, 0.1601474464272844, 0.5161333571021299 
0.2700740039755427, 0.04160448750615353, 0.9322871180528302 
0.6952386612475457, 0.008522679942388756, 0.14867534710094343 
0.48758371774006304, 0.4015172558011906, 0.43406183538167775 
0.13247677918594247, 0.962475103722705, 0.005640146434346183 
0.09404242534471219, 0.49695048655381857, 0.06374701574155284 
0.5390508370858961, 0.01915333450181589, 0.9252803937321411 
0.8074172411971773, 0.93982100375376, 0.20862077898935194 
0.4563232645585271, 0.5974499367948753, 0.19828827788315362 
0.12046991173098198, 0.21468792836141748, 0.061837215167970694 
0.09786508730554566, 0.2922654513562031, 0.007976725053346123 
0.11522937408524836, 0.5067445118857271, 0.5760399713762899 
0.3799028678791465, 0.956372297322861, 0.5476223490259425 
0.8705800718260466, 0.9448904808558737, 0.7198369650153486 
0.283676318102689, 0.2755452181222261, 0.08062923515047649 
0.7588766309517836, 0.9777110787700537, 0.7181559037667524 
0.6994084784753055, 0.8619411821962722, 0.346993210110064 
0.7097247847676963, 0.7606274110712242, 0.19158661339643046 
0.6938124700756704, 0.17743411184847213, 0.5879850575162773 
0.9161683030033161, 0.026715478709425144, 0.4782108800433835 
0.045739871089068185, 0.2830928915063635, 0.10655841255962417 
0.8272442463163324, 0.16363278393129743, 0.05043833537362963 
0.7186603988375198, 0.6652014306637755, 0.7423694256911835 
0.2106286723807974, 0.6928249734257366, 0.6341654581637364 
0.14655544143063892, 0.7083559353412423, 0.10903272299274536 
0.05556787194901991, 0.03873656156289873, 0.8720968732846479 
0.7720761342207713, 0.07154495270952732, 0.6524859111039922 
0.6998225904944856, 0.8351529962377785, 0.4042899042103709 
0.12202983421375957, 0.4027058233394393, 0.8766067251880476 
0.5769041109803007, 0.5359890842980483, 0.22399901590319038 
0.16620797769987328, 0.9343261185272858, 0.1640557781031956 
0.6552322832827323, 0.24082995591404233, 0.9237166826228042 
0.4684408124405951, 0.9716447644567789, 0.931042323801703 
0.7665219811079835, 0.9135414714651381, 0.1322534749606602 
0.5109125508655188, 0.4209806095920895, 0.8030878641273475 
0.8387111980988277, 0.4897730875157046, 0.5560558302074841 
0.283433039613893, 0.8745777777987717, 0.8657532476448365 
0.9207859179388199, 0.8370661519307485, 0.6879070790788535 
0.05076732774851589, 0.2737144830288407, 0.3901869221513953 
0.367133789645646, 0.676553663378464, 0.602815181487567 
0.9007930708489656, 0.23878913539328117, 0.06761102565822208 
0.05014120667202859, 0.9153868250904575, 0.9585901400366771 
0.7132978370431178, 0.36354209541450666, 0.0604950829503933 
0.9032486750778516, 0.44077424533910037, 0.2774235803896872 
0.39371539943315437, 0.8369029993016593, 0.22337269652981429 
0.0040176357872185875, 0.29972965879161884, 0.4703923035970995 
0.22712493409490087, 0.7280212419713384, 0.7901326820668026 
0.24154201056614122, 0.464956450755894, 0.9168403642639494 
0.652945470297179, 0.846034000596198, 0.4655656626909678 
0.9036176991037586, 0.9204721646621794, 0.07227681017971976 
0.5807470854003296, 0.7486509812189245, 0.8145751045334346 
0.6975663640942292, 0.7240981286515714, 0.8737806652498997 
0.05907995136521227, 0.6430526967456947, 0.55724894913251 
0.7744111989614869, 0.028423164236555887, 0.2986918892598287 
0.972091843222806, 0.3095901089065546, 0.18156391513371029 
0.8327500604755812, 0.19080519944334795, 0.7945946230975564 
0.88252811684611, 0.8198567954359459, 0.8267388901875007 
0.6065697025525408, 0.19859627733641072, 0.10164060226318516 
0.7191134351002875, 0.11529891967555506, 0.581481454450188 
0.2062769701483882, 0.43273681779762074, 0.5490924189337466 
0.0033734869810780888, 0.1476107613166976, 0.3568173305662542 
0.5883306247985272, 0.5050928602484218, 0.5975748829394486 
0.37471722513983974, 0.856342351132869, 0.2269401756480267 
0.3044182270457303, 0.9527100928151532, 0.9189444481711697 
0.0009928653481628968, 0.7381079082812233, 0.5913948093558907 
0.26454431940741674, 0.9767911118812512, 0.6925407524344751 
0.7783023827001488, 0.81378461300826, 0.4374811381939765 
0.9772622721383526, 0.11320776585225745, 0.2952931246622631 
0.7571468694691124, 0.9338727251025876, 0.44978293852540174 
0.18745847012879657, 0.7060201839329575, 0.5181130136488435 
0.9811594696205811, 0.9434687581947626, 0.1987409216147602 
0.854812275052241, 0.5691944848148349, 0.69977191053633 
0.347255119544707, 0.22056223076829296, 0.046463286861408326 
0.5590329545316504, 0.48334271087638747, 0.450433182272273 
0.34296550148155003, 0.867651431901676, 0.789224638808716 
0.20404708208146727, 0.5593024118402096, 0.5530069735673321 
0.9177166164643684, 0.3150078958209276, 0.6958974840758986 
0.3342409127834046, 0.2343083858681072, 0.4782856583022701 
0.9809461864927926, 0.15784584938588742, 0.5570102560468873 
0.7637384310536718, 0.3471633931172333, 0.26195515104383105 
0.8843106319961774, 0.1516624988987515, 0.2884622789492184 
0.9769578912615445, 0.9267172067099946, 0.3303726254323882 
0.7016994361880756, 0.833043598620717, 0.7069480483592852 
0.8996036535355166, 0.16981483015073273, 0.9856906983705015 
0.8201479319214153, 0.719181570174552, 0.34806327019850647 
0.6375594820955388, 0.12690026387883147, 0.24887349204419162 
0.5934145638954857, 0.7701217169109669, 0.783562344565252 
0.22174889668664965, 0.800119274983755, 0.20962126215336863 
0.6758604208897347, 0.5810260551564358, 0.7294321483029533 
0.9516220695066553, 0.4621573275486911, 0.28708742486868266 
0.9391537448350935, 0.4434817203203346, 0.46133954972968405 
0.8689824977117003, 0.7039876017568857, 0.581456042131164 
0.35099946279715066, 0.3609701286531388, 0.24233847969139255 
0.9363072719044333, 0.20987698088740092, 0.9061675029306299 
0.2001789164530524, 0.8057682222678936, 0.12471390426056561 
0.6382176721528463, 0.23238729146322934, 0.9122475818821377 
0.8226416669193568, 0.9577588581395717, 0.49096443188335026 
0.4856405026040612, 0.3606160935676209, 0.06781298937832247 
0.929524251012446, 0.6980353279197087, 0.5953318442566434 
0.13994031653441386, 0.3454528877266646, 0.30663420587774004 
0.8954942987891198, 0.5746521817788287, 0.5414615500397395 
0.14991466157469902, 0.24541557102570755, 0.8790100461611221 
0.033446637432580584, 0.9275834205349159, 0.7888495461683356 
0.7394952006727826, 0.2711538743867926, 0.37162296962729546 
0.9362293297508207, 0.5800516490518077, 0.47598916516929435 
0.9370049974650148, 0.275675698043542, 0.5899353595666019 
0.7454218909985931, 0.7115701482027195, 0.7380616988917025 
0.22960208148034056, 0.48988965251696803, 0.15033232895327053 
0.624825631290384, 0.948495830292819, 0.7017741043254432 
0.7291009116369742, 0.4856343160554146, 0.9825067207804161 
0.4038365318594479, 0.18655401720300824, 0.9711557150606337 
0.1939633250693492, 0.7363877455576006, 0.05597152848274878 
0.3442813789332111, 0.5745367574132013, 0.8201953576897226 
0.11620366076266642, 0.09924702593403312, 0.9702285068487833 
0.2256268170090695, 0.33526274814929347, 0.6340130199985953 
0.6722583641946246, 0.11451879703795098, 0.17537796529005323 
0.12690473650783674, 0.4091005459018541, 0.77770276874472 
0.8564918780925884, 0.9161590557330344, 0.6353379029765953 
0.37678832782311744, 0.7189860986349039, 0.25485802459146056 
0.3573061429350025, 0.2472385372517153, 0.38750648121846865 
0.914367229110627, 0.6175811684729485, 0.01693813018703405 
0.8144835924695124, 0.4153653904818977, 0.6649521313642444 
0.7310949317896815, 0.03845358954105804, 0.7394668962484088 
0.9675975236409451, 0.11964049852921999, 0.9048424398354782 
0.04891234859953408, 0.17843086385736573, 0.8371663906963133 
0.4537024514343847, 0.014502023333668457, 0.3641446322927423 
0.7987850962108838, 0.2891999128235525, 0.6751329252146099 
0.8210701000646563, 0.09561473482392868, 0.26307741704814847 
0.9147113217099864, 0.5686758459077018, 0.48577783701044175 
0.6252787460646634, 0.4558666152764038, 0.5343457269816421 
0.656825023551783, 0.14303694044547355, 0.8809664456375494 
0.8919682937466393, 0.7451223237756885, 0.7622008282679409 
0.45332063655765276, 0.9973537841167379, 0.4921220840642683 
0.6907132056488728, 0.348310407649426, 0.3241219598585797 
0.743924422522166, 0.04776077092339426, 0.08464365095500803 
0.3605791828026348, 0.08473507952465664, 0.28272516390209945 
0.3372042454744165, 0.8359013074445479, 0.977969338085012 
0.9172553104079396, 0.7207738027312127, 0.5666258101544354 
0.6251020737452185, 0.8430807001396866, 0.10442149450707994 
0.1929577640612522, 0.20528636225340147, 0.45805996463001764 
0.6953316479245222, 0.8392753757994746, 0.8733368633189673 
0.7972184207805528, 0.8187619284560069, 0.2306244380104624 
0.026337194003827946, 0.7344640799797115, 0.40222196300887847 
0.2362054933776706, 0.527692951128636, 0.20062776767145474 
0.4633945446487916, 0.9338911374170211, 0.5557018645707833 
0.26691948159815093, 0.589354361326868, 0.5730705747871251 
0.47302582312256936, 0.04879258937888786, 0.31678211071352536 
0.6528657005390925, 0.6089120415981814, 0.7968512686054766 
0.15564708126137505, 0.6489337084060818, 0.9236931056735743 
0.14494699719541748, 0.7174301987042494, 0.14336144719419075 
0.21105180455997596, 0.6260351642634271, 0.9070930241061715 
0.37429878784715953, 0.20589389493976784, 0.19978964065753557 
0.5182841633116241, 0.7762905619100445, 0.9574778902852706 
0.010253442042657324, 0.8216538992381309, 0.706597717437514 
0.07682287970939927, 0.16756555766852255, 0.7012829808724641 
0.01580626393178275, 0.9631009258363362, 0.11404302836922176 
0.1403678803155659, 0.021944925735936538, 0.16217217168112308 
0.3098549910949362, 0.6352330373214874, 0.5500111008838432 
0.43747396013371, 0.5471198674256855, 0.11395982347752276 
0.8577514767249573, 0.3107789438475579, 0.06301325496911692 
0.9998305688008939, 0.2946934415161646, 0.05235010318725941 
0.3163414402374305, 0.23786097987086263, 0.743440660441468 
0.33184179953539583, 0.2941017019106337, 0.84029257087033 
0.15909999313741674, 0.893316342624224, 0.06587577731033778 
0.5148083736994515, 0.055271614286640514, 0.7564180302957866 
0.16739658566701765, 0.515539730139422, 0.6458074129800473 
0.7516155852451035, 0.9342632027503124, 0.3157463008526483 
0.6301563141031981, 0.5395904490031038, 0.42910034171650646 
0.8869209348450227, 0.39969956271391005, 0.486879568306424 
0.7278589295042961, 0.6212781843738778, 0.9207958789855397 
0.442661380400036, 0.6871524882153519, 0.2986306900010752 
0.07970427392427615, 0.16964068572697366, 0.6161107531947898 
0.7279962846159188, 0.15394513034002444, 0.37301046706950625 
0.6111206453805228, 0.887429111666949, 0.8766939110905348 
0.22664352337534222, 0.9378095416745886, 0.1018588016272205 
0.4274898141246972, 0.6590538472736789, 0.04706238162210119 
0.1943253425291347, 0.2833783683050606, 0.5580814275674945 
0.5843495287009713, 0.08786461592611772, 0.08723207567410363 
0.9385216183921031, 0.5169019731205723, 0.043804547326165566 
0.47870165176533097, 0.8559996384102306, 0.7778423364151354 
0.9725830613745576, 0.11670006639256592, 0.021555148668732538 
0.7028437494200164, 0.886657130628295, 0.7920515068786272 
0.84015736045391, 0.5621974722801656, 0.3134669458993502 
0.6920129692229676, 0.7819083478116611, 0.6310733127783051 
0.6481748165552276, 0.4731441800162891, 0.8284268746891205 
0.9093754612651241, 0.827996056966724, 0.8431946358639689 
0.9857381871370232, 0.021262955181442722, 0.18405252522491744 
0.2521811720528, 0.0825045618513921, 0.39323402667430707 
0.01816617287816069, 0.9784142808172552, 0.46671311175098007 
0.6262499417634059, 0.10543871551988493, 0.507771813394593 
0.43562929165647646, 0.10814908106923304, 0.5740670531021189 
0.24333814674896415, 0.5381903356060916, 0.562060401810221 
0.2460089122122615, 0.6645975585930411, 0.44245795188490433 
0.7399707257424312, 0.6420218950671579, 0.7786025312395336 
0.5189741336474669, 0.8639580505173389, 0.8592166014930891 
0.6406878052416394, 0.4028684038239212, 0.6877920376928971 
0.21731517414983637, 0.257048944394651, 0.33965886309480176 
0.8039003129972837, 0.9355655536343196, 0.8063842748261169 
0.9833608409884945, 0.06244655491140494, 0.09999882239566882 
0.4153794020867154, 0.9542288585276342, 0.07159955270165552 
0.44292510507399485, 0.20476374299276823, 0.968745755295746 
0.2802976003835539, 0.9190627975883155, 0.03394405758424601 
0.13848855712012853, 0.14357803373770983, 0.8651261002290526 
0.7349113800093074, 0.2932507643475726, 0.9565139150430859 
0.3506082005316691, 0.2178597475694587, 0.4943031860545871 
0.3541700725566056, 0.7553267562512216, 0.22834780001586674 
0.4028773026068858, 0.9252825168908307, 0.38923072799351877 
0.05656615613373872, 0.6087697804928786, 0.6459429639413725 
0.6661393693778135, 0.35884743044453293, 0.7614859592248934 
0.1404021393927546, 0.25259726677883243, 0.6162737745245771 
0.860679783635441, 0.4332023082200651, 0.8640460466878603 
0.5176275470349315, 0.412022230172144, 0.17130638091539507 
0.5195813564692311, 0.9005971459998197, 0.8305996967323457 
0.9774122394543028, 0.2568386603744789, 0.7201071414012732 
0.2251296981564025, 0.35659128373561544, 0.662001089544534 
0.23880580412695807, 0.6125006765654114, 0.4623570045700689 
0.8840448081398885, 0.5887919799247356, 0.5674601430326776 
0.5870324075068774, 0.5681603542362197, 0.7885791915774527 
0.4927265676525122, 0.18888795367771016, 0.08411877812020885 
0.04397991870657081, 0.7552483814381007, 0.8890487588539838 
0.854589353726548, 0.31396414962345365, 0.28585905781617293 
0.6890403401414141, 0.9546511829120923, 0.9202393018660888 
0.17602816724727688, 0.7068065844393794, 0.2003466161413635 
0.14902968655045223, 0.6984895223624767, 0.46095871097148433 
0.24410509272591407, 0.4300148843561131, 0.7716290121863197 
0.9035465538306027, 0.3962317645751251, 0.3701865936083786 
0.031332312888676994, 0.5065670448557924, 0.39304784959226 
0.5737252513266744, 0.38518796083036844, 0.79038839167137 
0.48451885358390245, 0.6798522172780795, 0.19666916091659803 
0.844642918491618, 0.38976682478453095, 0.5648241838733389 
0.5640048213320779, 0.5573231635904978, 0.5972246456497317 
0.893404047243645, 0.04016227663658356, 0.26695794426192443 
0.45323189856486146, 0.05422807673660479, 0.9891609157465441 
0.9194539478917089, 0.27766124514765533, 0.20902517211944838 
0.5791238994713468, 0.027469125172681186, 0.5247456314427572 
0.6513212971131723, 0.3983511121630705, 0.17997164796004006 
0.7044339379343689, 0.774542411736185, 0.31076811978587215 
0.021279691851865512, 0.45157126294085737, 0.8646562213372144 
0.32490345993606995, 0.6485108735153438, 0.4612590997046778 
0.05987710261804413, 0.7505784784929821, 0.27632734075834364 
0.8359724388986023, 0.010090189028890362, 0.45706855710053396 
0.22976141181544452, 0.9921067008295131, 0.6916068259547775 
0.8251954323304261, 0.7985132769204417, 0.5097022963067197 
0.3326926585652842, 0.7525494899448367, 0.1692885955135277 
0.2941734217670907, 0.12888661871044826, 0.5859001524936139 
0.4530467848566061, 0.17737665153692428, 0.2635439745079843 
0.20929768187113662, 0.2537779812059704, 0.6447306348293435 
0.5782931243907073, 0.05497430860482411, 0.8344028786662404 
0.3138184222135847, 0.33452170480817056, 0.446297246756027 
0.6847301795367685, 0.11094255709643841, 0.9315536957884252 
0.5663151860412244, 0.934912759684824, 0.45853736854608884 
0.7151588286747096, 0.6803199539027972, 0.7041714170051709 
0.260612045689246, 0.5343711081780931, 0.904780178066645 
0.9670664415755459, 0.5059565503811052, 0.9061866561462765 
0.020629803204358144, 0.6939647657624222, 0.9404747103084439 
0.6566737536162583, 0.2094007500603119, 0.36444931527223423 
0.7621046677321728, 0.5129905804942996, 0.5892732365260067 
0.9964817547302991, 0.10163074046103093, 0.42778068419285664 
0.4659798105133729, 0.8571639428445775, 0.0547147826313128 
0.12794613786430142, 0.6910296417638159, 0.38884505631112243 
0.6661341118894021, 0.4476869469476138, 0.06430455188252027 
0.18123035664529585, 0.8706475166428991, 0.9327016225917569 
0.5256359446877946, 0.1994805533959343, 0.09988724352915901 
0.9266936025394688, 0.6249499247884746, 0.9475346200030341 
0.25351310618876577, 0.07358212457369795, 0.9604173632159638 
0.6739151071301809, 0.7087643083570596, 0.6171784582301659 
0.6856959831021139, 0.6641728260474045, 0.4958818292768732 
0.8228365537830659, 0.9180406759403709, 0.1494888504675025 
0.13827923448575952, 0.06792308710736394, 0.01739730772518222 
0.4718834626564191, 0.5145996743193785, 0.3081901851141462 
0.7834243881153621, 0.6676932856666294, 0.9969597412434302 
0.8078221915052296, 0.6027917053078857, 0.2619470386964352 
0.5774448952519438, 0.17790703386624462, 0.7983579867298334 
0.9749310860744377, 0.9654729275616211, 0.9585981429195664 
0.20959001195047844, 0.4255208694552275, 0.07062005537555138 
0.44736357303703167, 0.6961232233456187, 0.5331868977583835 
0.4388529821017325, 0.7968000328884092, 0.1040426437584816 
0.47897184722009845, 0.1885080985523987, 0.43014757607925536 
0.8491400552741184, 0.7424293657863221, 0.5712367857960199 
0.1466655538937811, 0.4173460897138872, 0.847239641997784 
0.09727661536988697, 0.9824305112063679, 0.8817441122387042 
0.809505877566815, 0.2689424305349468, 0.2608609055089173 
0.8160906708114684, 0.3229885337773557, 0.28289920301271587 
0.45520736545208684, 0.5004226139228355, 0.6533660937172763 
0.3854624408931139, 0.9759083142820684, 0.8439815220026915 
0.9651717885126319, 0.909441308962092, 0.08927730456004457 
0.8704800118138647, 0.2332753941067215, 0.001089029057632751 
0.6480109347960016, 0.9110109456926351, 0.5262414514954827 
0.2518191078317541, 0.06696618495848827, 0.8619590059354452 
0.39688859948337085, 0.8495661889990201, 0.29860169164866923 
0.5386948756761394, 0.23203525749840503, 0.778961537712512 
0.9964053126070315, 0.9443961554735781, 0.027174840610267093 
0.1726637101846109, 0.3985417054165984, 0.5208288958234415 
0.8002026455303317, 0.1726590858305923, 0.6327819732134138 
0.606188515823147, 0.5747269352323556, 0.2651479111075832 
0.9313545922315842, 0.9536680217474964, 0.1427367496702252 
0.18081275963512633, 0.30644320229219213, 0.03539114887587791 
0.011029596308601564, 0.26629009357517996, 0.9633103410300962 
0.4557214580545381, 0.3697193612063808, 0.21954554796766101 
0.6549690817142515, 0.12767311393682412, 0.9553079546212805 
0.46800233323271856, 0.7128084225016011, 0.08637746250360279 
0.5169869307155869, 0.7875191564327202, 0.5349531958483471 
0.08058027133276213, 0.3599205702438032, 0.4049159776951812 
0.9886313253203494, 0.571047919784268, 0.9583762702095833 
0.09910676942044372, 0.7641973497946256, 0.9184894564926135 
0.8150321875036756, 0.8115396611114585, 0.6817017899614373 
0.799728270738064, 0.9175081630576843, 0.5870885710734512 
0.28016930855923194, 0.9166316305486161, 0.7049702549853339 
0.10163420764326869, 0.05843852772937219, 0.29431245417523444 
0.14312949150111876, 0.2112826896003882, 0.15256858392025974 
0.33975529586616293, 0.12924260351782502, 0.9094790309873247 
0.4762345575781962, 0.5079434384177366, 0.6930807084437867 
0.14070954774370503, 0.9788596855333371, 0.09994340749160657 
0.4535676576351968, 0.4527802799952495, 0.6699613514482634 
0.9505623384834, 0.5560852701436783, 0.16226983996675115 
0.585425214408398, 0.35587887107766525, 0.8124881351105931 
0.9629939725181798, 0.1518056649180436, 0.7811780178682279 
0.6903229460982054, 0.7131473689943831, 0.3476946652909585 
0.5336394513027041, 0.0670561219803788, 0.17004665892610848 
0.3802238524458027, 0.7574097398772124, 0.7408370325429063 
0.8200793666869358, 0.5867394750563428, 0.631673666289806 
0.41707354313697964, 0.694878373920535, 0.5418713409922693 
0.03570816048531378, 0.3043905679514878, 0.8107426019181095 
0.015649334507708113, 0.4847515775999447, 0.976348197685186 
0.2122352092478652, 0.3877666068080857, 0.7876503845626216 
0.3803732465179235, 0.26788479458789227, 0.9668350805911397 
0.18514400763941563, 0.7642939584783816, 0.47427404708594056 
0.7957228250482373, 0.2915432668663188, 0.33354582993783477 
0.7999059821492708, 0.43605589829555025, 0.6990706440780194 
0.8187759228024379, 0.14604936538196844, 0.10693980142333481 
0.2987298941045352, 0.5647890462581875, 0.5376063438666241 
0.29596926668729984, 0.5772947776404628, 0.39188402549842694 
0.08648459057406677, 0.9426523886558199, 0.029771915548862493 
0.3653823629818428, 0.04788882212924128, 0.9954085212948409 
0.3308714452056878, 0.5545438700336884, 0.5624103339492034 
0.4071495298627643, 0.9025604551031592, 0.11417793668732534 
0.7025659624985785, 0.6508958555604907, 0.08646188430190704 
0.6543411740579026, 0.7349579391283301, 0.21343726480733283 
0.10641015371508322, 0.31835079811873446, 0.49183156928819516 
0.8286000860788724, 0.6472667582779693, 0.4748307217576274 
0.3271940584305514, 0.0265914564844989, 0.36317378665870437 
0.39696273082516054, 0.041959852582481694, 0.8145629052356702 
0.8216970421118738, 0.41348274114576766, 0.005443210856264757 
0.7698389993518405, 0.7602942626949283, 0.3761449385003296 
0.16352965317755697, 0.18237659999208655, 0.9590909309109947 
0.8189503262982964, 0.32642518718455305, 0.4034706778436088 
0.7851666923085897, 0.25412635792960414, 0.6250582291649927 
0.10654859650123405, 0.9426623120968839, 0.7370826901639195 
0.5701949781991134, 0.12930479629031755, 0.6667881429962408 
0.7827030781490237, 0.2975811781529467, 0.5491380870044427 
0.9369645680206264, 0.24553285568359784, 0.8745865541917766 
0.08291056496944327, 0.80421304564516, 0.47736695213079106 
0.8984071509079635, 0.46704207189730373, 0.15051402167192607 
0.6791811115409119, 0.4140603651255831, 0.002973270645472148 
0.45738295109330096, 0.29844390614520955, 0.8884658305814734 
0.8951784827747982, 0.6322959663279827, 0.5049042909099486 
0.7165133151659707, 0.9455025357459176, 0.6207287047207963 
0.23072491496514647, 0.8139643227286266, 0.35082138986821176 
0.20142151320514112, 0.8214683108355612, 0.2608144473469912 
0.21045807492535018, 0.7562649641578388, 0.8258251565539068 
0.33849533718166547, 0.024952409043612622, 0.9731461358122496 
0.25802047444716003, 0.545828409393066, 0.5321682373142838 
0.0498699629238436, 0.31617415417830674, 0.45482443734133315 
0.41231322558077155, 0.30676754376684323, 0.1388842689784796 
0.6442757827621761, 0.12864631152735817, 0.18084409533371415 
0.4845914110577213, 0.1495667368710374, 0.12562273970266769 
0.06668082489410099, 0.24154136520736913, 0.37291585649212167 
0.12283490033224631, 0.2659570196724038, 0.6947918965969737 
0.4421059130127567, 0.01543978656361189, 0.8586448605265474 
0.6288195829895736, 0.6934086752576967, 0.9103897125610442 
0.6106723813023608, 0.9391838184522354, 0.8084012799181225 
0.12422917201024641, 0.7526340373964575, 0.16557608144253355 
0.07346763496207342, 0.2925191169232103, 0.10095973088603716 
0.25843839046708883, 0.9373536552383446, 0.4246575322466485 
0.31368763244281095, 0.36952261370829154, 0.7611801613118443 
0.10090783919957702, 0.14540891419093682, 0.4712301829351394 
0.08258236081957027, 0.6658765774717104, 0.9039440863070648 
0.4672886217777056, 0.40020132428112143, 0.016433205835312936 
0.6906653164099004, 0.9508081771270214, 0.9043755458232938 
0.40722573203571155, 0.007580783905825728, 0.0376242165020334 
0.6345414780334416, 0.4379454263267314, 0.40096049982300264 
0.30077045467785035, 0.08175945237079252, 0.3556186864927282 
0.7554873088238495, 0.16485234546364524, 0.49070362047433114 
0.43904254191416303, 0.2329729708516769, 0.7493608999097771 
0.79824638884715, 0.09800908449363466, 0.20024611807848958 
0.3618896983427726, 0.5393098969052784, 0.6933774750874296 
0.1812852319916879, 0.8084970803716832, 0.05794614367350048 
0.7706447335668203, 0.8714193925652873, 0.7577426029505644 
0.5679748118081502, 0.030950393483345495, 0.41056730261854724 
0.5351980010252468, 0.9240098717699968, 0.29502653466194195 
0.17806920670315574, 0.047047702824148496, 0.8828713940454366 
0.405821256025381, 0.1512038586015022, 0.579474596491667 
0.4566272313114317, 0.02809621590658684, 0.0806254268412987 
0.7861461975168269, 0.8279085104795978, 0.5523125943331578 
0.48383818275923085, 0.3394654496666041, 0.80032827481468 
0.14423701600060113, 0.3320679283254375, 0.11234914303954069 
0.21551494712954844, 0.037525601103119643, 0.9572578316427832 
0.6247563384794751, 0.7695708873603747, 0.08702768043083253 
0.5310527325182861, 0.6937502671420438, 0.33774280484809016 
0.4596650873017123, 0.4663548503445907, 0.5895752805397316 
0.04754987238328612, 0.879930164464088, 0.06882921239645001 
0.47111375258066, 0.9875913349080634, 0.2921006672537094 
0.9075291311190972, 0.6415915778636045, 0.6903034569865013 
0.06558677044425554, 0.9762268024579334, 0.6082766390340802 
0.9432607677761661, 0.44236182520160094, 0.5233741599610422 
0.9751527471561915, 0.21766928928469542, 0.9093672665394722 
0.26609338452111975, 0.30538644979069796, 0.2922808661418286 
0.5824868278061625, 0.9671656201324621, 0.947666594891656 
0.13527780886996044, 0.4934780215579263, 0.5515058078649361 
0.05126215539215895, 0.4517034086125824, 0.7101163621501578 
0.6227783054907152, 0.5097723669277919, 0.7718862336774208 
0.44487906768979957, 0.14934565808306488, 0.23254272608087845 
0.5066099422706576, 0.6452679383783129, 0.5182462031025661 
0.027779749433317624, 0.14793033047836357, 0.9136411795414973 
0.45129711692405394, 0.3074964392352245, 0.9117995654814262 
0.294493449017737, 0.46839400296696876, 0.6065377756147228 
0.9162839658641069, 0.16991905311352906, 0.06239471692402332 
0.6359101571301299, 0.10381788557288885, 0.8595545540460874 
0.24388680392046114, 0.6869291644214981, 0.20634183117525162 
0.559625719421275, 0.8256573152902772, 0.43997583779867 
0.6336240258100494, 0.3395628974056958, 0.7109275422881269 
0.6546542356852942, 0.9904140983593859, 0.9148288944242515 
0.30804570402470177, 0.10305937389956366, 0.5747553973237287 
0.08187264316595355, 0.6498976774570562, 0.28455412900304855 
0.8308827030587751, 0.408593226426745, 0.47208334689519904 
0.7722629755366212, 0.07585459982309362, 0.29756230973856646 
0.8305187722357362, 0.9878774868162337, 0.6254397697771451 
0.6621285697486348, 0.8987837465938548, 0.3835584490780738 
0.4723801799253724, 0.14752258011667907, 0.9370457306596265 
0.9717664495594155, 0.8378581291733002, 0.6184951376933912 
0.8650113903953481, 0.4813113401271607, 0.3304013566557179 
0.13477728260858668, 0.14918967515612358, 0.5981945116148648 
0.2557840275308594, 0.6099328553454769, 0.7306985980837778 
0.6736021223361044, 0.6268879790514822, 0.015462749771683715 
0.16774084950078916, 0.8566624668410707, 0.17270896726487706 
0.7061449377213241, 0.8694597552865483, 0.5750427319223446 
0.8358618670793723, 0.6945569768344249, 0.555110853947872 
0.08866857357578362, 0.4299669527625971, 0.8487300728584284 
0.9821566948903554, 0.9468590281433286, 0.14505814469330391 
0.8595910259914413, 0.4044975878865217, 0.6157809049397575 
0.7343511635491964, 0.2846015052470574, 0.41157383254355373 
0.30838745819885416, 0.10122161907568539, 0.7727678014536705 
0.06041961989888145, 0.4349487741190857, 0.7842561183508059 
0.7564962202283324, 0.27111639579668745, 0.05145897102004526 
0.9068739465719511, 0.8882506551532733, 0.17871630704888153 
0.12124284755413306, 0.8968181582085261, 0.8271966527430391 
0.020429378331742076, 0.808677043055734, 0.14332580292132469 
0.19246381791846978, 0.13163661175582309, 0.35836856330738887 
0.8585230233108391, 0.911328979157918, 0.023794650985247134 
0.667688085299049, 0.8176792215309212, 0.5031040102696643 
0.549228456281678, 0.048896742334814225, 0.958159673656295 
0.5652767533736611, 0.250199904427967, 0.652565714253087 
0.8692286507785116, 0.4265239034729158, 0.8197858066891281 
0.12483093458302852, 0.2417309929824567, 0.5663161259322343 
0.41392800865461066, 0.5819035389694651, 0.5589798743231333 
0.06617206579180657, 0.29658086554508145, 0.3019777731311514 
0.41358176713441097, 0.27322744091779194, 0.2993555126255881 
0.21015579680618424, 0.0831419781532785, 0.5059788032980076 
0.8023107920402003, 0.7157678065234353, 0.6588104251052548 
0.3700947572847323, 0.008294839915659713, 0.6707377491376422 
0.7033658498705695, 0.8329665437643392, 0.21792529009772765 
0.9944103315228929, 0.5617386709386931, 0.9411913378516452 
0.795418348656518, 0.6714601301348617, 0.9074027292155121 
0.6976666610033225, 0.71629066509775, 0.48776242752511156 
0.2607744313232846, 0.6029112229568626, 0.6896400045957495 
0.08385893176822212, 0.38638694425670794, 0.8598680290318717 
0.2186139837733222, 0.16942694449070517, 0.7951056429843558 
0.16584488564809308, 0.15798259600089992, 0.1699587769534473 
0.845075448818011, 0.8346319253169617, 0.14818297460926155 
0.6419057622911943, 0.45420242954916934, 0.7149182329947174 
0.7964185475801332, 0.25582485923753073, 0.9297976437749196 
0.7780523710771368, 0.7578349904960328, 0.3930996451122225 
0.20519351890996196, 0.9216147196605926, 0.921457616104528 
0.7528783479755158, 0.6309280700082148, 0.8238702887336122 
0.3529393187291192, 0.22150057381605148, 0.43957235406668893 
0.5124933402501364, 0.07562621830501337, 0.6789871952139348 
0.284075266720373, 0.7951039190472505, 0.1608602367145422 
0.4394991433348978, 0.7757878378513551, 0.35196385007238973 
0.29536904775300954, 0.40910965734052285, 0.036450283906097725 
0.6079993377910727, 0.908141591885439, 0.39137555168385896 
0.836478771328419, 0.8195993387978109, 0.38189224562278334 
0.31713074763692206, 0.23614301647625646, 0.06561009536699192 
0.20971616491983291, 0.599945896468174, 0.8563743591147198 
0.30462453967077985, 0.839243211602398, 0.704469223321868 
0.89184056112896, 0.12936356040143404, 0.3875797628290578 
0.5962090337461459, 0.7624880741797585, 0.002751891085343461 
0.5938616959273699, 0.09351491061798756, 0.4146765510508469 
0.12280810310799128, 0.37576098898621424, 0.9268551929955531 
0.394745439194791, 0.42107781400599487, 0.7979321497519566 
0.18366030610207662, 0.23119256833563195, 0.8189821557080318 
0.15143644112706667, 0.03072792722685247, 0.03800884490616874 
0.5053965293298501, 0.8484894675667607, 0.32153824832350497 
0.15131898948190792, 0.7637248251619438, 0.8437552402478807 
0.9189671508164222, 0.6503330048339461, 0.07937465426759827 
0.5347700258175403, 0.5814051165868611, 0.2677816960283199 
0.7459498055404148, 0.18154460270822292, 0.12116659271373464 
0.4892144338988941, 0.23608291096293554, 0.24882523799490686 
0.932156281708125, 0.9120403642295558, 0.9970057688797335 
0.22114897557835544, 0.06320690205648638, 0.11848086955242265 
0.45090369865263746, 0.6194309773572575, 0.7765445360858946 
0.5301826682542555, 0.31361985044998053, 0.06373041407730096 
0.4904095088547388, 0.33749970826001885, 0.13354920291023198 
0.28274909988893926, 0.29893898464436164, 0.17269383144663464 
0.5006302554582741, 0.0024442663445457535, 0.3523149254613497 
0.011891068851792919, 0.2729421689233863, 0.27385266922681717 
0.4040767710973938, 0.35898025546036083, 0.06113182246951132 
0.07374625317407524, 0.8380055763358626, 0.5028832739744039 
0.3135382775210539, 0.013910422111408693, 0.13939855199820328 
0.371067544056642, 0.3925101264918449, 0.26229539112176836 
0.472762428379097, 0.8752450588445337, 0.4084846993472978 
0.8624129023289407, 0.9797286636476505, 0.028608332667163117 
0.7056263588388931, 0.03757825301097528, 0.6303489654124742 
0.7249368836081619, 0.7782881778941685, 0.5351597450747451 
0.7421634489993367, 0.24685614567738312, 0.385994658031517 
0.2546929852751957, 0.6998366340843053, 0.4263005057517806 
0.9515776564825837, 0.1441918905004289, 0.6930087913505331 
0.8699300179664129, 0.9808087552354875, 0.3620321024428782 
0.3195047922463732, 0.7285076785434929, 0.14819251652353427 
0.5431438552380775, 0.4900262803086449, 0.28718454660059145 
0.9343405126958921, 0.3150408140282225, 0.8743976159676016 
0.41132726508989026, 0.8397381195828572, 0.7414880483032312 
0.7525034697274494, 0.18278825794194842, 0.11116556274509648 
0.2624685108199959, 0.9443854842795609, 0.6717982665570553 
0.9806924752397062, 0.9706257235674236, 0.8509498890341063 
0.8044653527112847, 0.9308136202225715, 0.24488406382809513 
0.2832012363462828, 0.1712589789332194, 0.19543372989788166 
0.09222523281953698, 0.8812167287445178, 0.7484190169961249 
0.6859455090999962, 0.2709959119502454, 0.5537515151592795 
0.4386264872742791, 0.07629868422397568, 0.5086179512246025 
0.5802352840821174, 0.6274046540594244, 0.909653901010209 
0.007323253970121901, 0.6363321026766743, 0.806184860499823 
0.04577682553341811, 0.9375527851856909, 0.42079003179135877 
0.33693490010573257, 0.2644653491916108, 0.12208305948329712 
0.9120808589570075, 0.09261845337806007, 0.712139491971567 
0.026245453623636283, 0.23269974140614513, 0.44347482953980755 
0.00876478079848697, 0.3510379174071503, 0.94014612215746 
0.35390672364225584, 0.27633241130189934, 0.44397036840681636 
0.47205295610506404, 0.7837130194652072, 0.8358711275908959 
0.3726223749122316, 0.428379577455983, 0.6080661361194151 
0.8502836310197447, 0.6153362097539616, 0.09708660055464069 
0.16722338588926666, 0.36606220000319334, 0.7427957794600263 
0.1599472172105667, 0.8510721359320714, 0.5538993708446955 
0.9518672177805394, 0.6592836586088937, 0.8913847834238489 
0.9392468689713148, 0.34078407026396174, 0.940372871778114 
0.18412091732026914, 0.8689106261341499, 0.9936449534697538 
0.1827368008956166, 0.5317700765238926, 0.21371635130476463 
0.22754627569488473, 0.4494233145996377, 0.5515311908872177 
0.8391977015067404, 0.5944080459449689, 0.16480633796088284 
0.34179597497248015, 0.6961872262833662, 0.8178770300565841 
0.4314211547404371, 0.5845712900336099, 0.207191581020577 
0.8270783862539314, 0.29392860347483973, 0.42064909406671036 
0.269298693288186, 0.9427691117487355, 0.15618717963543494 
0.5546706251454524, 0.651866680140695, 0.15944531523471905 
0.7723189155860374, 0.434202729948846, 0.3897542185273861 
0.5613266035832617, 0.02880087282721666, 0.22657105292330593 
0.9402336094500923, 0.19503328016543964, 0.7859649092928366 
0.4788426432112227, 0.6748959766223536, 0.6195162341375338 
0.13481271508005543, 0.7904576990792725, 0.039257282304707486 
0.342127176219469, 0.39552695784256, 0.41937479722821713 
0.2472824683637539, 0.6870060809975707, 0.6288600444363707 
0.5412640820895867, 0.8444948804189872, 0.09104478855747256 
0.9222621265587363, 0.40269426824755983, 0.4925335738008999 
0.6706484641431107, 0.749856299398811, 0.3703250672770878 
0.2884522606556914, 0.26782628474442594, 0.5397405524361832 
0.24315440439113822, 0.21186403284214983, 0.1377481652363517 
0.3963742775541903, 0.12483198002376672, 0.18270608457591297 
0.7985548181493791, 0.529345474141836, 0.23505614545075038 
0.4730042381830618, 0.672546107778751, 0.8517092911493794 
0.08073099874458833, 0.6664964724531768, 0.5926287676967462 
0.5805618387976336, 0.6226398202637609, 0.9083814239231334 
0.058658395568379706, 0.7606649495716785, 0.9583135078372463 
0.10636355484801763, 0.43694658015652665, 0.7422113087706076 
0.6654836931940769, 0.04254789419178706, 0.2972362449897106 
0.12735864782185724, 0.3673037722705633, 0.8499518258165674 
0.7258193145333499, 0.013295827709225883, 0.24400293369660997 
