0.27499797506324075, 0.4266225633473949, 0.5781850214065436 
0.3987039111374384, 0.6890358010093427, 0.4201742318153344 
0.8731423497616024, 0.39896090472605905, 0.9133767302403804 
0.7704591850160594, 0.14883915611827558, 0.47378700973922816 
0.37725707407562525, 0.9608578332349936, 0.06816035124490694 
0.2009891329569673, 0.809088506935756, 0.23275332979217522 
0.5228651181295862, 0.4222220219185203, 0.5711491954023304 
0.011856533470884223, 0.9034133229902533, 0.3322692226492703 
0.5141054297739246, 0.6068485944369206, 0.9642998801152248 
0.9663066480927138, 0.007168609496133849, 0.8601677849670362 
0.7988962665949559, 0.2804928406093111, 0.3702184619522195 
0.29635814249659875, 0.1893125916265901, 0.43915275096355233 
0.6401449646172481, 0.9101619942031485, 0.092773484391097 
0.04284438002657465, 0.6723792513518929, 0.9728478447575172 
0.5715034235598746, 0.1714616822939904, 0.4799017710976442 
0.9820254439260552, 0.5100017689105215, 0.35824796476271814 
0.1263883211058202, 0.41329831409837736, 0.3815455716398459 
0.668179647840533, 0.8638686477491696, 0.3077211844433416 
0.6612127449840991, 0.06398523686811153, 0.10032786440142949 
0.2325480032901569, 0.9220721601998759, 0.5354746809114899 
0.618784409489891, 0.3502150947091168, 0.4680285551991801 
0.5643850865812278, 0.7973962160467065, 0.7350908183075238 
0.06282184966115667, 0.19438689636093676, 0.22181418468314584 
0.2357217257925207, 0.8981991280256995, 0.8024815383381414 
0.09275333261986962, 0.6049089629071083, 0.30727654953175276 
0.8605204699488458, 0.26324445877383107, 0.829369724817435 
0.19464346685384948, 0.6612282332931687, 0.6452893538294672 
0.8284787265550646, 0.687075584982001, 0.774434477946302 
0.2804165602424211, 0.12220626722895522, 0.48566486601070047 
0.7346839382180963, 0.5070837882484558, 0.23167985436189553 
0.6353034529586082, 0.8049476473244472, 0.44221067325171515 
0.6812875985306529, 0.4413557820591384, 0.7224950014890652 
0.003684099289346099, 0.5884899434434585, 0.41676304575688716 
0.39795945316731385, 0.304721268963674, 0.9449654999542618 
0.04356244408406684, 0.5235917418008402, 0.8770532898664526 
0.8213259996677996, 0.840594358858971, 0.7393901690521031 
0.47268009798856214, 0.026539614227149233, 0.038536176848348425 
0.8551884381682998, 0.06610119737282238, 0.6742083154986782 
0.19520073932593418, 0.8361719739025398, 0.8943412302262916 
0.07818653395196917, 0.4459572018272454, 0.2557199834239602 
0.787000236487445, 0.17679875936287048, 0.3427866072395017 
0.08999752925543081, 0.9350631207780525, 0.5471301130495287 
0.1577537013626713, 0.278903617308801, 0.15229028125241362 
0.16060875760082538, 0.25363494135032194, 0.5338973385024379 
0.515878486684887, 0.5519255564971928, 0.14274095488628502 
0.4997895978386816, 0.38502241480432775, 0.02959642014168673 
0.727031951338517, 0.08763521913256922, 0.9532864658447853 
0.6995890120252891, 0.03562127477669175, 0.5090699654696076 
0.24259201265902786, 0.545223144842315, 0.12554737648182757 
0.25689176902263855, 0.7982921078980333, 0.7628393305794395 
0.03252432870248456, 0.2868304231236183, 0.25219017250296394 
0.14611230632929295, 0.34475965946653586, 0.23213052485083374 
0.06901113347329735, 0.06901412061224088, 0.6986871734438319 
0.7888067601427694, 0.777487711654444, 0.35524388929577455 
0.3392209576552715, 0.9847454510121963, 0.5772787068691563 
0.35235225716072305, 0.018896992260790446, 0.6966679257459765 
0.9294340738891409, 0.31796588497633194, 0.35740733275274983 
0.6831144816849557, 0.171963138310538, 0.4837666029112637 
0.3532414216605215, 0.09643692043108909, 0.38001653156491766 
0.575373980707483, 0.07235943939612144, 0.5777433165071512 
0.5183976734968208, 0.9240158899358348, 0.17073831607605738 
0.534287035204881, 0.20956722262182503, 0.0038875252769823287 
0.8230608434737798, 0.12103940889851972, 0.6066523232427439 
0.04721144629345808, 0.9899386027359329, 0.06674290334806998 
0.5659221558076994, 0.342261368628596, 0.06955887082120848 
0.9501294119352425, 0.1467683520325156, 0.8875747974913464 
0.5356360027596105, 0.42090259122734597, 0.8212685753913689 
0.2942700401820275, 0.880781878755485, 0.33466136323745843 
0.33333380462225837, 0.4521715867417684, 0.09979408919779731 
0.5941961074544273, 0.6951528784949305, 0.2665644415705205 
0.9081331570662282, 0.8637357587533018, 0.023792999789144953 
0.25589891440197066, 0.9729678690217046, 0.4296551993842488 
0.7139995890016058, 0.3961188368305051, 0.9699045764130888 
0.9221201550445972, 0.5662657105356281, 0.21189450531306575 
0.5882197419312496, 0.8752644160901203, 0.8491915578472848 
0.7581193011678415, 0.6066423359734515, 0.9692429770277622 
0.14124636243249755, 0.17062035724680946, 0.9697915842789829 
0.9765345864267476, 0.6811797988035247, 0.7962988090506543 
0.5175981800389484, 0.8826324822242779, 0.18109884650227415 
0.3427619479600543, 0.2224910645996988, 0.300208975220981 
0.1666961833562114, 0.3537285054399185, 0.7361010964019691 
0.18337276050530182, 0.8491553597102445, 0.42578558138384703 
0.17326017779202008, 0.3494864653835945, 0.7343920887559964 
0.6044074363007537, 0.6272554696848449, 0.31908713345057294 
0.8461059565097737, 0.9276539544309127, 0.048730878518331466 
0.8430263488531003, 0.5600473060609957, 0.34221684695026555 
0.27372150178730903, 0.8892489463631695, 0.5377971253806444 
0.5690347844375753, 0.8994798954129335, 0.4784433626667819 
0.3018576945360171, 0.05047029629369937, 0.05685770539333945 
0.35460369920477, 0.0743014475965047, 0.023332786652549342 
0.7000089205527905, 0.2274576107989752, 0.06909705515001063 
0.4671144687839244, 0.9530128528271499, 0.5825944191981409 
0.3750213722552709, 0.9445771009807058, 0.5426334690763005 
0.9797047680355032, 0.5919827479027855, 0.5425727370872659 
0.0014497869352927406, 0.2231677992024842, 0.803745818416574 
0.30608871153395445, 0.7317100814693153, 0.14943771811947815 
0.33068204695093906, 0.9021081029670006, 0.8839475615990625 
0.3469929339114187, 0.5904912465682571, 0.08698981713320564 
0.9687660109362732, 0.2176760547115073, 0.24255821042249381 
0.8580914861482539, 0.27465367885490954, 0.9205994016882498 
0.5593499957985667, 0.8286684414809609, 0.7361501054141529 
0.18113734790660985, 0.7910548539231894, 0.6788660450320022 
0.7178485911406752, 0.5554341191995984, 0.154792001700383 
0.7902133030623357, 0.20428031886057307, 0.39362832286894867 
0.6358594700846782, 0.3877665955502736, 0.016714152663563464 
0.10804428271279964, 0.9751287252881056, 0.27944064221236964 
0.5941388220354119, 0.001117621173578831, 0.8175570242454047 
0.4033707330668168, 0.10644566823011414, 0.762739206381424 
0.011726661347129297, 0.4267361437924544, 0.7527960245892692 
0.7543093945950037, 0.4557507634988066, 0.9380796997274427 
0.16967021302171292, 0.03257095305907931, 0.7455972564804141 
0.8969583191327838, 0.2543883519290524, 0.8335522085424336 
0.4185383353289931, 0.16753577586946844, 0.37013429857247215 
0.9235703907561946, 0.5876930825005782, 0.09341757801253003 
0.5151579017918487, 0.5357700075980991, 0.9360804944306895 
0.13576815694210387, 0.035108419953394976, 0.9361806336868099 
0.8555344527983278, 0.011841392840002407, 0.8372665574670924 
0.7377820610277671, 0.7517592943973039, 0.42463292075653336 
0.484680750846443, 0.11063268331452425, 0.3753319144540994 
0.11614279561477259, 0.11464985440297837, 0.5089521628932101 
0.9741900640362225, 0.5629653601107972, 0.6688317747812615 
0.19937739654173425, 0.07433227895462635, 0.9030129763030306 
0.34936943922479013, 0.2728105038517187, 0.6200953239521829 
0.9113206003971759, 0.9851667653343901, 0.5473471645485506 
0.9357276913249295, 0.2770315115954065, 0.04629124266106799 
0.06488333426866266, 0.955482047111667, 0.47978346396487837 
0.8648294416993868, 0.6954439552155667, 0.6358268423637289 
0.5525130746471155, 0.47121339632874526, 0.709638777294135 
0.6675101697822153, 0.5914002688290007, 0.0793420009155652 
0.11236026967819324, 0.45827018550230414, 0.7492943705484738 
0.9452911597651399, 0.13308862732067805, 0.04452996214182259 
0.24760535545820173, 0.1960314882822103, 0.4832191154729666 
0.5376573828898047, 0.20528549731855938, 0.18666216870260577 
0.7313800779590488, 0.04196691694620047, 0.14912056572399368 
0.4393704035444057, 0.4296219807164806, 0.08554700822796546 
0.5064829799879894, 0.5962279672917866, 0.9939714359888379 
0.7328352260367907, 0.9952393233237119, 0.7449119067181968 
0.6438566412401562, 0.48534755674506513, 0.25926740012835137 
0.48767019322230465, 0.3318558444157096, 0.47037191245606635 
0.5801911949595273, 0.03815056838972086, 0.7822667955977033 
0.4393297423094894, 0.5340505727021954, 0.8131316564947736 
0.6651943666769574, 0.15672931889558916, 0.07414464615883487 
0.6533030227087544, 0.4133322280081707, 0.8127351721117694 
0.6011797818609662, 0.11349650669629652, 0.201577280428633 
0.8591400291621973, 0.018675361769812104, 0.47941138099141856 
0.004635284552473196, 0.7125913695984042, 0.3381486720364404 
0.5271445164299999, 0.2954716833790706, 0.08826058109204671 
0.8169937025910748, 0.3366177474849499, 0.670466658577598 
0.05317701462801061, 0.6170690504462963, 0.33890004843927624 
0.44605010420697155, 0.8636145486100825, 0.24825875070837589 
0.3298254724635119, 0.6319090227215372, 0.9659916382269916 
0.809311419678044, 0.8254885345263736, 0.8693993908840832 
0.45453318663826847, 0.5397971088326947, 0.855829909222021 
0.9584926749787038, 0.21149334737629655, 0.16087044944263984 
0.6641425133899826, 0.06971362925195679, 0.4821197905026423 
0.6130642600134244, 0.23571074122348779, 0.5254395707825414 
0.598917136871154, 0.9276932996268609, 0.13056949554564945 
0.17190997477055325, 0.21057894773099484, 0.691303770441074 
0.02526754665636699, 0.522094166480954, 0.14293215694899808 
0.6601577036877749, 0.12891332856400972, 0.9018209314625953 
0.8662672542775334, 0.48246776144172987, 0.3647403414722803 
0.648134783157197, 0.825269528358059, 0.44998133968049825 
0.7476202168617082, 0.5991210311770746, 0.9747737560908609 
0.5639814184420571, 0.4117367368740501, 0.6929313500788096 
0.7664914055017039, 0.32783406518546576, 0.0978711821802587 
0.364040333290505, 0.48816401848605884, 0.9192899060765788 
0.026138318047320808, 0.09414071043142447, 0.691876761127781 
0.6178958674488172, 0.4821516852201575, 0.5586245560419472 
0.07056818483402827, 0.29873065167727186, 0.49283079116808526 
0.9646377656988537, 0.9168604064546996, 0.5848209611453612 
0.5377621385114245, 0.6700459055806955, 0.22646430509963078 
0.9682433807176446, 0.6608359890984484, 0.7276348876272161 
0.8458419604742855, 0.739365700213248, 0.7602018191026356 
0.6022478589377539, 0.5208369390168426, 0.04675883832928118 
0.021327755986833674, 0.7121022338638723, 0.9451164796915037 
0.6011196754590852, 0.8596507503774302, 0.43352873676944903 
0.766467700125119, 0.9962064251548949, 0.01929381924351914 
0.8459612394513459, 0.6438500234415728, 0.135341947646342 
0.14854256704654367, 0.572122748438236, 0.7054176236405606 
0.15575869716232338, 0.3029385445296412, 0.09568669791555251 
0.5971395661444093, 0.2730849440302262, 0.04878068672172542 
0.561478016144935, 0.4478636792215259, 0.05943493595710969 
0.159669088763586, 0.47805478162617754, 0.28892300673188787 
0.7042704942981368, 0.36640417017218974, 0.12623177450018286 
0.3130871829010531, 0.5419373133394496, 0.18067688068114862 
0.18333390182548293, 0.5354976687548222, 0.45635575189368216 
0.4371586997663607, 0.7927455452058745, 0.17249129346825354 
0.9642081670191229, 0.24272603116314806, 0.4140313873271375 
0.5888877681626516, 0.5242848488783594, 0.46394316369250344 
0.5100886185889375, 0.22968829086219655, 0.2842590473272235 
0.1507697177015993, 0.3756480324708441, 0.32155093716840444 
0.8085060786247811, 0.42253236820491147, 0.7339695170489382 
0.7561459464710426, 0.48183517363500894, 0.030499677873341957 
0.8804190598744492, 0.13561928703388493, 0.15691347332094074 
0.8487855757027037, 0.03483284796666686, 0.32763866746354486 
0.34738347468647823, 0.7278810482025964, 0.18635007383541358 
0.46109563670702525, 0.022980434368740865, 0.22651432386297088 
0.26695385858328646, 0.5239037951617337, 0.14560783543762712 
0.5440067843863019, 0.11386448525200232, 0.26468841742501104 
0.47816336813442417, 0.8976894479323672, 0.03961933554406649 
0.7815826203218232, 0.2731514738716877, 0.32019376759013296 
0.021437258128387926, 0.270972495023444, 0.5161633838243092 
0.3529835079163488, 0.21849327871959445, 0.3552155736103214 
0.17023572540394105, 0.8516700877994429, 0.7816647885433827 
0.055326085871076014, 0.4846767609777769, 0.3434842406399581 
0.03400889575651411, 0.4935179012376595, 0.30736859570789643 
0.9355862657365319, 0.6271167849756016, 0.6081868180232823 
0.3027033998732138, 0.5925608215806678, 0.7867462938215452 
0.43263778556491717, 0.47077017984572866, 0.10707880002329984 
0.9936794450464863, 0.9539112392423738, 0.4126740856595452 
0.02435203678798159, 0.4884819631407603, 0.16041346687594893 
0.10007516093684943, 0.25866761990252707, 0.43663135955579013 
0.8400073899293045, 0.16048103290269555, 0.43850196083193116 
0.3559439133925838, 0.2918729356083446, 0.7633865968278275 
0.7829984153791513, 0.32156735151187255, 0.12246117288604619 
0.7278607709792307, 0.8067831650325723, 0.9288265396598141 
0.3199763057992834, 0.2690133890527411, 0.14755148186153655 
0.5778536269996535, 0.16625604910582414, 0.22962944648419126 
0.796146850404353, 0.8665815797681836, 0.9384711991219453 
0.31410920990457225, 0.18629242749770314, 0.0917107819696199 
0.10322769104054297, 0.44971414136269283, 0.5798043264447963 
0.20940844573905915, 0.8996007554420049, 0.5266706740894218 
0.7624401366713396, 0.0762986440322263, 0.386663417605145 
0.3380510146094219, 0.7117040063139869, 0.6076561741273623 
0.00034623980080905614, 0.29164268288746364, 0.39611004407502337 
0.5729727365088448, 0.8127885850370723, 0.9902620416126539 
0.1604216385539604, 0.25199989685113655, 0.48858209624020454 
0.06845001888213142, 0.21045680016259438, 0.18090038580340284 
0.88337731126222, 0.8046962196240092, 0.22372554049354776 
0.10976242806137548, 0.6781358989974264, 0.8187737058442601 
0.8001920791095509, 0.6008375840382115, 0.9515511573638024 
0.2806894600363843, 0.8384929833728315, 0.43244820218867863 
0.36323911408993403, 0.48431752425815255, 0.22825270868901926 
0.25693124114538834, 0.13268713996948844, 0.4793157365103863 
0.9603193724232261, 0.2356378454798238, 0.5155305219929862 
0.742684434206102, 0.6870870524566212, 0.7606262999032426 
0.9393058362434381, 0.4529594421877483, 0.7978887497905122 
0.44554504276995377, 0.4396389125275756, 0.22735545148438296 
0.9048558016834218, 0.45363777931876736, 0.29453065712873316 
0.1668765865934967, 0.3256239789876748, 0.6778420809512856 
0.46114345265003187, 0.559532446993448, 0.24336429820599892 
0.6020338455959334, 0.2035739038704787, 0.9543666790916028 
0.8869246335482671, 0.8002506677823003, 0.19577513396827595 
0.10355804939863544, 0.6034348744679026, 0.9865761649842636 
0.2284715703648572, 0.5823233644610163, 0.8072647670565762 
0.34247447246321994, 0.8757324004187341, 0.8995966528142348 
0.5189436402997013, 0.27574886131419474, 0.6352274221833152 
0.2785441911086679, 0.12464969307871443, 0.009641287249699149 
0.34244172469170375, 0.2895983307990334, 0.6202500511130996 
0.409972852305727, 0.8064334653759523, 0.2962464462385821 
0.17514366554647898, 0.6760579393403479, 0.9059234906709072 
0.810429265614052, 0.690666446091637, 0.70344347193108 
0.05881349156794469, 0.3724305420988343, 0.39724872529941346 
0.5354336040865424, 0.506561569655091, 0.42503159651351474 
0.29933997559768455, 0.74701702760206, 0.10981390278263348 
0.7107125285935916, 0.03887058888715911, 0.08200645825828712 
0.4247557810234348, 0.2664224961737174, 0.48288817447088406 
0.14814825291101286, 0.3733466167931174, 0.44624622669021174 
0.4487292533958741, 0.7928778590815324, 0.2029573759612221 
0.07209719866209152, 0.6553684336164124, 0.11063032536103024 
0.6544774278256102, 0.4513520320440696, 0.3353027974221505 
0.5409642560520055, 0.9776497101073417, 0.1611884266081557 
0.9137667149751272, 0.08198969563397795, 0.5291201382176854 
0.890078260088778, 0.8237264191514406, 0.8741350948817904 
0.1259268140016535, 0.6339121369267465, 0.5517276587532844 
0.4034640347117242, 0.8021968801695339, 0.07075672336340477 
0.4822147446306718, 0.5131936682450969, 0.26387196631423204 
0.21660405410678152, 0.22999010146238985, 0.7079497271206512 
0.12116425464377023, 0.3753113277035136, 0.036405186022337555 
0.7387174678093964, 0.9962828361196656, 0.43429171048930504 
0.33966559790209505, 0.3184254824063687, 0.6202542606186366 
0.8347817704417243, 0.09237648423698974, 0.8347164464118638 
0.412912288663995, 0.4414922327462505, 0.1402841762933038 
0.7249014728011021, 0.7020985424602263, 0.48643307269861635 
0.7106867256847197, 0.07735018321383436, 0.4326511457234058 
0.8821488442907073, 0.26100904903474365, 0.8388788166109541 
0.40572186104766883, 0.710728391602192, 0.49774910077896206 
0.5039921933683882, 0.8868132391684628, 0.19424778550024768 
0.9645039341709112, 0.7452819704112783, 0.4381699696888912 
0.9896930492705278, 0.717748288230914, 0.7652790032814624 
0.536680610158577, 0.7777939473381698, 0.20347319977398592 
0.042858339808207524, 0.17069005446841168, 0.32546619746712846 
0.49919599131150005, 0.2937495079621484, 0.9867787684723514 
0.10109093334887931, 0.6209906613671081, 0.5395025130384256 
0.8364356560939772, 0.2565353266558811, 0.2744781993915514 
0.8026831220456869, 0.8511531657112518, 0.23605264563109962 
0.9053689284434112, 0.18893960297002266, 0.5757859501859695 
0.483246763487747, 0.22667870073006235, 0.4112579303779893 
0.8345162196704592, 0.9593257650365244, 0.7811415815099945 
0.6116295469860884, 0.8742071085812063, 0.635173004973971 
0.8501726090570066, 0.42395092534629597, 0.27944785067626254 
0.2007003210387116, 0.4802022995946742, 0.0694229373544818 
0.5246134958723583, 0.7135571673097607, 0.48221081852963876 
0.5912622642522497, 0.8023757338018312, 0.7613975915774943 
0.3334433953265641, 0.9417213077898261, 0.9203424294088479 
0.7189364278164659, 0.4275288017647788, 0.09391952112627366 
0.2579012858955122, 0.12378900858201403, 0.5042289397213501 
0.8785464745848254, 0.7208847107858979, 0.6168700252560322 
0.031871298728940456, 0.9554355802244587, 0.19423202041606968 
0.9685022047891422, 0.996684297119816, 0.20515410093055042 
0.37842906525148357, 0.7677765369464207, 0.4990286033366931 
0.47528224648009376, 0.16712121316487927, 0.3035231347002867 
0.1232451529153914, 0.035598477188190425, 0.3553905169741194 
0.47133514522890474, 0.44500016347305693, 0.38579944004182554 
0.6196020719464648, 0.4314083997447713, 0.20801638716113158 
0.6238709001049958, 0.10073777738022438, 0.8688112734592053 
0.9568991156322046, 0.6591081659169788, 0.8497057093447575 
0.38672090815697935, 0.4692725060980599, 0.9644652753786771 
0.2720232974317073, 0.8960338828296189, 0.6352129404308359 
0.25181908187109814, 0.9011859047592631, 0.8544890065468626 
0.5630202546398388, 0.9333692955332259, 0.2753703702499749 
0.35931251621979376, 0.07147038603022682, 0.7662761712937182 
0.6107849621521446, 0.008743974713042002, 0.1545155435044333 
0.05780402792377737, 0.01380006136701184, 0.320844183851439 
0.8149703424387594, 0.6080688860265944, 0.022388391670900232 
0.5544224084087709, 0.03382543861746479, 0.13776064074000727 
0.7823392631968693, 0.5023600732954282, 0.30995654887609436 
0.6513673878385108, 0.8766243107757581, 0.8935169430560508 
0.40901134729034216, 0.8686202846897642, 0.4172859262603428 
0.8601817660249832, 0.7903578466895305, 0.4466862745538124 
0.7579087404872366, 0.2024053676455716, 0.46464764320664154 
0.9421003685151177, 0.057876801680949885, 0.7708114893686038 
0.040710130636606445, 0.7022954450629, 0.7147176688599942 
0.9535833231328527, 0.07533098013723438, 0.6638394870108495 
0.10213584175337054, 0.6241027626406447, 0.02145202615535835 
0.5585164898829019, 0.9897807233725009, 0.9732493845187211 
0.18641371334872714, 0.2507838620596671, 0.42369535467057573 
0.797194271889442, 0.8535531018089784, 0.1515434121221758 
0.9133448736577751, 0.24751257951796768, 0.16914101224536082 
0.8577286008780222, 0.36842187009121286, 0.13312962247496885 
0.48806462445668475, 0.4369468376100879, 0.3199835972628541 
0.8010202267422007, 0.700140484079382, 0.32421490540112996 
0.6332217968694803, 0.005083727638061308, 0.06312730123244759 
0.28723061823109697, 0.5540506323759326, 0.5978317267703963 
0.9446105275020567, 0.37989734046322565, 0.8711787522349792 
0.7532535619922683, 0.7905781649328952, 0.21766732423850632 
0.9905344491697676, 0.24514395260378619, 0.7386173653399271 
0.5157823040590863, 0.0724222737568978, 0.9880967105181211 
0.7719746727912657, 0.534269705756774, 0.6877360364124545 
0.7726356854419536, 0.41584680301364296, 0.36279708548183043 
0.20681174285043846, 0.2553251114635594, 0.5553959610629489 
0.3291270986086934, 0.6881833317446242, 0.8895910738749113 
0.7053543596780678, 0.09660511475575051, 0.9224946455867606 
0.030581569290608845, 0.4028419885333101, 0.8597521443520179 
0.9182483371994091, 0.24677529524549668, 0.16022288123281858 
0.3288218859654083, 0.9097183002864352, 0.8021828196753946 
0.4386628178399803, 0.8440422847157877, 0.02379899066841329 
0.9129193979564342, 0.3212912732193298, 0.9082801410340009 
0.7182758158552024, 0.23963109266299587, 0.439346390436147 
0.6135619356068138, 0.8988160039180375, 0.815852664856593 
0.4292371853332415, 0.5273178242290565, 0.6035298216855667 
0.3674150985590844, 0.4269604999184897, 0.9156599123349103 
0.7709264017296003, 0.042893417456794314, 0.7298131908318117 
0.4169998602996584, 0.3156744971948917, 0.7036937215496435 
0.5573322458087939, 0.053625940396129446, 0.8079504096145568 
0.010590539093008, 0.10956195817655134, 0.6606591371933537 
0.5306981155834954, 0.8318504875777001, 0.4175470150703098 
0.6343129495113561, 0.9474657922319505, 0.7350684677417868 
0.9350911686435668, 0.06170850796132121, 0.3042958267660909 
0.9866065254230626, 0.5732457258178221, 0.7728603287261662 
0.3809717755180253, 0.7729566168769327, 0.09125468526216474 
0.9391517030635748, 0.023480678932253585, 0.2424239493671928 
0.7176711142985445, 0.3088281366807383, 0.2304176787889194 
0.01626950320856202, 0.04550749215937744, 0.6954639329550454 
0.7255484003619005, 0.8054809369806829, 0.6695917691974378 
0.08255899175322334, 0.26478228694938766, 0.33085997233105935 
0.08092725132327239, 0.9367002264592961, 0.5302531922286057 
0.017133530592548962, 0.2857791525634049, 0.7440705508565697 
0.4515351833743706, 0.554186104105485, 0.7244555511585915 
0.972241522924916, 0.005651557240174743, 0.0763522306998683 
0.8516668384673733, 0.9074660970421149, 0.18515065713647327 
0.32837274974751585, 0.1252286602916205, 0.28446088074701137 
0.13874926538229782, 0.7512625948936352, 0.35439496349953237 
0.024067755215327558, 0.7455142720503869, 0.09788745271472898 
0.05871414087100657, 0.908530175307587, 0.5522125318037612 
0.4265138508223142, 0.4755853065373288, 0.13640994701544273 
0.31953086614067716, 0.05886893619922806, 0.07183344867927766 
0.017241629073890152, 0.6382740657616656, 0.5160428375314613 
0.9293415890639666, 0.5936132452948805, 0.5909188893465985 
0.9321410371689025, 0.5819801283897121, 0.20041392814238368 
0.9698557208723796, 0.41870408059809705, 0.873992367111609 
0.18041346696838356, 0.14335017948961337, 0.868265634892406 
0.3841158526676901, 0.7051888850804077, 0.24496954977568708 
0.8996929333160321, 0.05617378554667518, 0.024545393345391964 
0.2238020314209549, 0.47903378921453754, 0.33186900472765835 
0.21492977594908202, 0.6690583057583394, 0.38502171330808854 
0.8141844445590167, 0.5580795858400602, 0.20783705617010972 
0.5659373346571571, 0.9910523435104549, 0.5825462194219602 
0.9942137325934506, 0.683068681016872, 0.23245593717071122 
0.7433906399044307, 0.6525605592364487, 0.33346303545896994 
0.4148693235542965, 0.5024103069505107, 0.6354361094912387 
0.4826123682705954, 0.5542802081192982, 0.5725728873143694 
0.07518108777088695, 0.46087917825715785, 0.4917040890946034 
0.22829063051354015, 0.5501057432875625, 0.6303619641889951 
0.9320702851096444, 0.051017930479000384, 0.565265852050268 
0.4481933824220151, 0.7740177989577524, 0.3005903716572891 
0.23803186073183247, 0.8268387554308931, 0.15099001754698216 
0.4771766548961549, 0.36737178123476066, 0.405990710777953 
0.16427797786248854, 0.26294333486967103, 0.313343034150376 
0.16566682484316209, 0.9042811967548164, 0.945229959594608 
0.2460172889751161, 0.3039249102831305, 0.44578307717157895 
0.27167284059831376, 0.48462568186372024, 0.5268935039169346 
0.5407185136478391, 0.7534477535170907, 0.7343011550744765 
0.18484137182913252, 0.9869122161953832, 0.899848911983101 
0.2958202808487542, 0.8021665116701955, 0.11029355364346782 
0.6289243779341398, 0.11358140510179504, 0.8060326821717771 
0.701253028215215, 0.053043630652626184, 0.23631135682217075 
0.31885422502946603, 0.385023164718879, 0.9022711078091739 
0.7163408354620138, 0.25452116468960406, 0.11780197694490113 
0.2211262321808931, 0.6193436878274746, 0.7185549555629835 
0.7688490987061283, 0.7636493453954473, 0.4897414548858551 
0.0008073929572963712, 0.31686022699782845, 0.5393195720067252 
0.31313528715752814, 0.4497415983378604, 0.03850970002804199 
0.3691883078900621, 0.026881452063889144, 0.42090579593106847 
0.28081120589238107, 0.4449931672448276, 0.010977543570302006 
0.7821889746786491, 0.16853489438203362, 0.4610141879983728 
0.9009595424636315, 0.3831997457390369, 0.3998392666192534 
0.639414042050066, 0.5913650905749649, 0.9321358358614613 
0.7221978496555099, 0.8957319211437906, 0.5622207874123998 
0.9577143314206737, 0.9328442985002549, 0.7352357421940344 
0.39068188633821577, 0.5705385870686783, 0.1944105732286987 
0.9370969296581007, 0.6259821282002602, 0.37293629050985244 
0.724567142367423, 0.6232629943592792, 0.440189266874084 
0.9856770397569942, 0.6087834134902848, 0.8039988721687309 
0.4930516379476757, 0.8174215208713724, 0.008797728628955781 
0.01188725360418752, 0.9286592209694855, 0.2956503242168944 
0.6084259055268516, 0.20915177769432491, 0.2251775490150244 
0.11115609460538367, 0.10353207602740855, 0.1616793057012771 
0.42990612417295826, 0.008948785614979249, 0.2415541108133713 
0.25893410639093384, 0.47941616264042264, 0.6232877761792247 
0.9020773817140774, 0.47517683834652114, 0.15513815261132635 
0.4285405150086776, 0.017891814947667783, 0.34631472323477985 
0.27320616973663425, 0.05060303062174809, 0.3125949814209451 
0.7883756326048634, 0.156623528758578, 0.8891660484330638 
0.5119897636493208, 0.7455038072073539, 0.5679933122258944 
0.6351957448102779, 0.42474505806918783, 0.7001024554156613 
0.9985290670041549, 0.3424676484344543, 0.5137852609210727 
0.6803204631025909, 0.8378880283451582, 0.6193130550269382 
0.5671758971716557, 0.5101239947638987, 0.4345047230980664 
0.4140960903071128, 0.003275614820600792, 0.29487105225597965 
0.2543580304516002, 0.5117975259384102, 0.08470186185454343 
0.17404058048313498, 0.909509101751299, 0.7450922297729186 
0.8680335076313505, 0.46217561756652215, 0.4465477478736869 
0.1835577226169468, 0.9100823503595136, 0.9497563115235642 
0.015027040590346874, 0.18005372677729803, 0.8617598715831019 
0.7284515010173377, 0.019373236446838638, 0.6875250752395168 
0.8941127700540796, 0.23697078064967714, 0.6615562806375334 
0.44066077838284556, 0.7995268187617354, 0.15834836561028942 
0.12919129899461457, 0.8329867612230724, 0.7229578586476504 
0.8052381936622163, 0.7609338985365957, 0.745923769329509 
0.055001951136960825, 0.07215495657813609, 0.22829660892375636 
0.014194704481612863, 0.7075145344356202, 0.7092649430108198 
0.05690179468959644, 0.4091661719211821, 0.3504940615500428 
0.3372646909191368, 0.04777817072453294, 0.9996951235431375 
0.9230850711573698, 0.3477419460275253, 0.01930337271076965 
0.11888673418119944, 0.6543019403142364, 0.6788133563167305 
0.7026568214503408, 0.09714334138990721, 0.05798929495772087 
0.3978632984110029, 0.35117963948314346, 0.17674458843646013 
0.41330616826528876, 0.700592117341611, 0.7931830548743569 
0.06651341215162043, 0.9850045791985043, 0.558795517985542 
0.45206145992230984, 0.04859965739650374, 0.139333996029667 
0.5344148148284863, 0.5492172608072685, 0.849606778218458 
0.5567510413374103, 0.9656234315584551, 0.05575004945201267 
0.3970054793304729, 0.6266937050134013, 0.2741520252448937 
0.6881312841408489, 0.6251134625644085, 0.18047560129236184 
0.7593880888616825, 0.6722826508403114, 0.4686253834916072 
0.41461272549835304, 0.7290149681544731, 0.17207436231226536 
0.36705995826556326, 0.9854950184739102, 0.799622403372325 
0.17408881176729896, 0.7015607698643069, 0.7091682779660954 
0.9612027440987793, 0.4716142395968287, 0.12777586007426367 
0.41943798661213716, 0.2916678070412356, 0.03756796532181472 
0.3184258863857412, 0.5797732027492124, 0.20027985332269038 
0.4490557441831655, 0.6638593202150724, 0.9020137512657639 
0.3448124379733978, 0.10434092184761457, 0.7506936598419125 
0.40173255930924245, 0.9336565522504782, 0.8791201077867702 
0.4168342395715493, 0.6294147668471457, 0.8596631219774041 
0.09840931505324602, 0.9491363020296619, 0.49903813050630674 
0.6458054498283816, 0.8234914455123401, 0.7863583054545996 
0.2942437864112062, 0.9174479867165669, 0.5298039248755081 
0.9792093063132196, 0.6093843848604976, 0.9795827794936212 
0.40977555952934885, 0.7871807728563859, 0.06681242837716195 
0.8000253261750119, 0.8004349468243533, 0.8186212683100388 
0.5627278092632059, 0.005637039160698465, 0.5204067254407515 
0.18520728641301276, 0.7998445719129118, 0.40116705737368086 
0.8909058703398015, 0.7942961361971609, 0.44012934615342436 
0.1422113375881262, 0.11610892307160858, 0.6475549965684734 
0.45560187503607275, 0.46021781932041894, 0.835657725804965 
0.4615982003305019, 0.10434175814856683, 0.8857535640558466 
0.864563431203109, 0.8545154628735466, 0.8507400211378265 
0.93835529277346, 0.26590528487677023, 0.43710986644635286 
0.5185834238657292, 0.3871117783948522, 0.3408347960373289 
0.2078526674676161, 0.9187816410971886, 0.8671030593895426 
0.7063111625842408, 0.13519848251067546, 0.4976603656118861 
0.7962178580337882, 0.32346221994536073, 0.501151947165331 
0.9356418497597583, 0.42150057461246393, 0.5213716857982462 
0.7440661871416919, 0.8517109821503546, 0.6595412300446603 
0.8149149347697245, 0.3494089500977775, 0.32953348368914026 
0.23567935758287206, 0.3320273854285086, 0.9934963351388635 
0.2559257557790736, 0.9379063295249775, 0.4898521290670421 
0.5140235709415519, 0.6367247354414467, 0.5383570349716672 
0.5381262510321478, 0.5450538245694923, 0.7183306534850109 
0.5409668772671399, 0.36089504234023717, 0.52580978418099 
0.5986858177792629, 0.06710069091305793, 0.5612336162432499 
0.12846291261831277, 0.6936896702588726, 0.6483058216569277 
0.5895519323004778, 0.760457523484121, 0.7679272591875078 
0.9884842359015781, 0.7851616554463077, 0.5709834064466699 
0.4528639901371977, 0.8346034231079933, 0.7137423374968623 
0.06090057763155554, 0.037090082327582485, 0.563218233344162 
0.9329826471833287, 0.655144687441562, 0.29450014003181757 
0.5202766247821236, 0.17798556742613947, 0.937776653858775 
0.8804383698992803, 0.5665727184768182, 0.3113174689162116 
0.49661607866739466, 0.23623517705412211, 0.5608345085556402 
0.7861734943636265, 0.12404131461949575, 0.9302006694338664 
0.712676794315859, 0.26512720521444666, 0.21447390124499977 
0.3749169283794198, 0.17421686120400237, 0.3977037111189401 
0.24694004958730587, 0.3226956680280578, 0.9636980883996595 
0.26899129970210134, 0.6851762497688377, 0.5287063372161259 
0.4456212373989179, 0.9164914864467677, 0.12709890221423792 
0.3093981158374465, 0.4806188095583337, 0.6122169479984712 
0.13334934004718701, 0.06748124541753797, 0.7901142020719094 
0.6382970485855993, 0.5785949699477924, 0.7062622975032974 
0.43028892705589705, 0.8999260981220534, 0.12759873512890862 
0.4666803663759197, 0.6543248942878759, 0.7245709306549815 
0.47168742805793895, 0.3705346764223373, 0.9528856193588829 
0.8899560743887932, 0.623303715502271, 0.7130929019828474 
0.9908081977300088, 0.47088624981032323, 0.3072190337697951 
0.3845341341763783, 0.9456382886665977, 0.6373492829480831 
0.2931396524711779, 0.06200847587302549, 0.6057608984027293 
0.8193213570212081, 0.997774077469897, 0.7672388437427764 
0.703832480789003, 0.9486731401845034, 0.03341716668434025 
0.30614356251449115, 0.7114336391379095, 0.857344891800775 
0.17525633024127618, 0.6157212446684696, 0.8844446092127576 
0.9645518751505906, 0.6669295760763463, 0.6724223529240134 
0.9257444580435868, 0.4650962877563716, 0.4104921923772178 
0.9307186393634138, 0.9182942266402885, 0.35686010807708846 
0.852203567261457, 0.8795292764236915, 0.09985653801988748 
0.6263972588431833, 0.6763902132682579, 0.10355829719078968 
0.945544592606025, 0.04317141444470418, 0.5541246110649815 
0.9406088376952526, 0.37414816307233867, 0.4754338576692839 
0.6381295117915514, 0.867603910616874, 0.7915725218604872 
0.0060248194440323255, 0.92177269833391, 0.17019349898334057 
0.3310630253592942, 0.3712522767156895, 0.9350367286980295 
0.5244568253699335, 0.5319384600588687, 0.9438705992749734 
0.15178394588697341, 0.7828194584309582, 0.6211595977146603 
0.6529353668807127, 0.7757310718632802, 0.03435237942613112 
0.7662593773955301, 0.8647381397900032, 0.5276253619613784 
0.8793752700210792, 0.10324165102258387, 0.8113462499286693 
0.1287430391814922, 0.7229523469142635, 0.4414776115514468 
0.8122604916922671, 0.09955470331959093, 0.622164432173597 
0.6168685360422226, 0.12030187251378854, 0.4512928231588198 
0.03418670152175862, 0.8511874242133717, 0.6712541091506066 
0.7685378592482239, 0.27451999450443776, 0.5023306532266386 
0.08414514550163976, 0.4226477543752307, 0.338631123421398 
0.33176327727116306, 0.07957519521107814, 0.15688817210706196 
0.38287689927718693, 0.11847670453437953, 0.4439249426308889 
0.4708701345729577, 0.20507919683647213, 0.9763312447945401 
0.6650198814556764, 0.4459473375878583, 0.8245501265974754 
0.3698815374943326, 0.6916775540188497, 0.8195983677770642 
0.6733790058139748, 0.9554534024004555, 0.2906544271881688 
0.3878538139439559, 0.17375674673967978, 0.9913471260289828 
0.2434315233921085, 0.9205160579252675, 0.17357053549231838 
0.23625234071348844, 0.129238829219685, 0.9328720125370185 
0.5720960417123261, 0.38772825199565963, 0.8325560446253003 
0.38109464441199037, 0.5868531042456587, 0.4716610409734563 
0.41814626451659187, 0.8034720950513486, 0.8257153299885813 
0.4951146707420967, 0.06313938664268148, 0.9897564897987814 
0.9087249146964376, 0.37796306410591896, 0.48193033629693793 
0.317434539339258, 0.8136062603715188, 0.9955673595792964 
0.23393362187388167, 0.17045907144979555, 0.9623204612402589 
0.2721718740109006, 0.6306747723795214, 0.399910868919926 
0.14743360065097122, 0.6515836898939813, 0.9856657158160513 
0.6952649881059875, 0.8163584854616779, 0.024517656725606796 
0.8986638089637556, 0.1343926827707992, 0.9049794709079684 
0.7776661622027998, 0.34796365503945414, 0.8336197195799497 
0.25261975392697267, 0.49075746405883425, 0.4721728340707324 
0.33707806242114513, 0.6642080018613217, 0.30593077475506336 
0.9932666946556283, 0.587741769843178, 0.48754558129170456 
0.2364813723216156, 0.7871713827061626, 0.5058219354857606 
0.5046850022102293, 0.112627311693422, 0.4354660119503546 
0.8020175878369538, 0.707425949629967, 0.3856178958832661 
0.3921749059572429, 0.42978203611568744, 0.6369862365738186 
0.2200768383263898, 0.11352719274984113, 0.2515760528451063 
0.45799146821650116, 0.08637001606329853, 0.6729100739926017 
0.8787139686372438, 0.9073140738207626, 0.9251524686897575 
0.8275997101366227, 0.9195613348832883, 0.2703680829503642 
0.05001905033963738, 0.6552007501156407, 0.36781343199479244 
0.33360841387746776, 0.36603972410466035, 0.48083218197648503 
0.7770341531291489, 0.9825332006837245, 0.9276921752334691 
0.21900552039715293, 0.16669435164012059, 0.4527801456932137 
0.9154507574868136, 0.8755995811561635, 0.9263176677589242 
0.3979135492629612, 0.3087155258876807, 0.3487198250914346 
0.22281199334670898, 0.8471765892315547, 0.5325735278963586 
0.7977760448245159, 0.5205004929463911, 0.49105881609483404 
0.5943866713065032, 0.6957972547550648, 0.283999774167791 
0.47240988504996917, 0.10082839368616547, 0.8234683564095955 
0.6627263164376178, 0.9078953771222367, 0.6986214984146126 
0.24943190156517248, 0.5883617324879035, 0.316110270079313 
0.3620482305352728, 0.16822792816589194, 0.7972299857861338 
0.7278129883175886, 0.08445738669974834, 0.9754976244650451 
0.8627278956057101, 0.34977319018057507, 0.5962891606700681 
0.45604157015031976, 0.6386071449404797, 0.14512245372066224 
0.5508768346601265, 0.10875657260175631, 0.353280898915301 
0.7375093188835246, 0.9968386809207269, 0.28661766748785533 
0.2303095794419534, 0.6450957652893345, 0.37105957968006853 
0.5954161719172462, 0.7727787482294747, 0.6267564449048063 
0.7426969728789875, 0.5325033174514715, 0.5155456575691644 
0.2060961159937592, 0.940459171004944, 0.0115905004396053 
0.20650094657340023, 0.37976063746379296, 0.3752565671971999 
0.5865727416882383, 0.5289328341804949, 0.25301251157515703 
0.8839753397363448, 0.788045885489466, 0.3013811720230042 
0.5783379175917125, 0.7823183926581461, 0.4319704997158187 
0.8153234998911439, 0.2063673189731816, 0.8188157819712865 
0.13858761926082597, 0.7596466313893504, 0.2286964074721758 
0.0887092017381762, 0.15896146265845768, 0.8628869552733569 
0.853039084706939, 0.5638967571459326, 0.775763134805502 
0.14479160924286583, 0.7526778926217315, 0.830058016569922 
0.3242365385957088, 0.9809188796452485, 0.685768990101962 
0.9026428085295092, 0.34376499004301253, 0.5898973879250796 
0.5671560076863503, 0.37110606462731066, 0.16162744228531845 
0.041147208154478365, 0.8348341696269315, 0.5275707355751076 
0.19345351556837098, 0.7590388364219525, 0.38929324031688284 
0.20429118893733578, 0.726413406776651, 0.5847649713987112 
0.24487690694513786, 0.33707844594369085, 0.818120739171676 
0.005180429445280854, 0.8618598805614397, 0.4131001925774621 
0.028720047783169167, 0.013709221261243076, 0.056961319061470506 
0.02873042819658589, 0.24289132384986822, 0.8950872023204299 
0.6804737012694271, 0.23072585087678676, 0.8611988516778233 
0.5348348092439548, 0.4144187064615905, 0.1792366706449674 
0.496552134124001, 0.4620011271331427, 0.7581504434926946 
0.375729220555338, 0.7905588857915046, 0.28532991495210513 
0.8036237959577479, 0.2566505520195148, 0.06091515325575081 
0.9663682932817014, 0.7236128035249252, 0.2654292509656454 
0.8073922666014683, 0.7138600677425528, 0.4749534018856889 
0.15535524549270663, 0.5227356373315611, 0.9731508229499629 
0.5221920493990474, 0.8122929712734749, 0.09349508653279359 
0.7814962521869776, 0.3990287625625941, 0.39723743038136683 
0.1606798429107157, 0.9863079324083178, 0.2163806802021817 
0.6988967674748567, 0.7851159415435256, 0.29626417628506163 
0.6965637857853961, 0.05003049158042938, 0.8586101556997219 
0.713194136887651, 0.6757659426174786, 0.6773944835819407 
0.9847717991489986, 0.6205033938455162, 0.48613610182321954 
0.7955338110565887, 0.5683882171016373, 0.23353943025215462 
0.32801295546204035, 0.9512731918657691, 0.7610031841134736 
0.832897042426116, 0.5529322103993403, 0.11115114670490267 
0.10661860110679178, 0.5814054870244219, 0.8639213970671344 
0.15730955372874333, 0.3744058466247131, 0.9333238938597567 
0.026487002139486515, 0.8313167869935804, 0.14804083644653465 
0.6488867440336106, 0.9281969774075634, 0.4749614515962224 
0.6997515091436642, 0.3030372335259265, 0.5148205382508672 
0.5042796369677427, 0.10506778908229353, 0.5560419745656712 
0.4484645527308809, 0.28658916705691906, 0.9465636852226513 
0.33448009479088237, 0.7980703787762998, 0.731023188709973 
0.488744014847429, 0.2074639814704473, 0.978848379484127 
0.12229670751662824, 0.45718508432538874, 0.06749759677070055 
0.16525979924908607, 0.46420363674537357, 0.03021525761450805 
0.03391037420484244, 0.6471983654866588, 0.9785884555250937 
0.6691076873251849, 0.005071168731205389, 0.8877989292374422 
0.5869499625431825, 0.635074739515261, 0.3806618446291026 
0.5644048575354197, 0.4469187540817249, 0.8978107763405997 
0.5984810422752391, 0.9064687962788509, 0.38671685204200335 
0.9120113782406586, 0.2241775735410383, 0.7015305007761808 
0.12229565800674957, 0.08256160474608931, 0.6878993973449028 
0.7775780590433794, 0.8480514475380494, 0.6834134085377527 
0.07786870724601913, 0.7702869784999802, 0.9141021795603932 
0.8546427550141628, 0.47686610208240243, 0.5238060749221407 
0.07639379699694693, 0.3344841501101412, 0.318850390745263 
0.9335373875495027, 0.8009083363560405, 0.12261490241404627 
0.7309007602111491, 0.25935805941725965, 0.22481454775417542 
0.4371477212846818, 0.3712364291163711, 0.5621060071018705 
0.5612012392770344, 0.3720096520327222, 0.1627009863572627 
0.5929876799395702, 0.8869267791656161, 0.9905690937817452 
0.10442453748824376, 0.9233619815112384, 0.3847592842682859 
0.7584040153516036, 0.17986876183709122, 0.42059276278052415 
0.4504594493417422, 0.41314009450617384, 0.02831739158527047 
0.8075860795211113, 0.0421231828888281, 0.934555591929738 
0.7016837151130524, 0.6951096167943925, 0.12556758479264218 
0.7789093421925377, 0.01011147471129048, 0.06053054663649504 
0.9831072339074325, 0.37015445569308536, 0.6299660888145198 
0.9881473044422829, 0.3582199398138123, 0.6504171294378138 
0.09501801434949309, 0.9693340749061892, 0.6539034802457143 
0.2949198331904336, 0.7313279906517264, 0.15527193664429773 
0.1880574347319568, 0.7895553703872114, 0.3998505885472806 
0.6865760035088659, 0.7783568417608339, 0.14664593741182874 
0.9019636192768082, 0.6772508269724102, 0.8223137025812371 
0.07994385164460982, 0.7639688265879117, 0.01269454796831826 
0.2816138028588481, 0.967736843037197, 0.6994599085415484 
0.1431202287193002, 0.20322810090037235, 0.841827589640036 
0.40308568419908175, 0.4488138298900992, 0.04246346472062612 
0.5533335560256099, 0.6253523837896467, 0.293052133777441 
0.5845693559045275, 0.7223088254343142, 0.29506355185565825 
0.9899066822507713, 0.20339621869273006, 0.7392285999237802 
0.1081883368200508, 0.3277541224205931, 0.237005519863276 
0.491202942779028, 0.19727661191322088, 0.14846556230778507 
0.22567260557492452, 0.3401251448495638, 0.02590322795635147 
0.2663456413941244, 0.609087907548964, 0.5298452539923015 
0.9671232925311543, 0.21378612017566156, 0.9459282831004129 
0.3066409718545915, 0.38582210661102434, 0.5041811455656989 
0.5075326439146362, 0.2243733516598604, 0.7749913239982457 
0.6749466209093882, 0.3212515045730594, 0.23374005412642718 
0.6959047557180816, 0.2660205778118012, 0.5945885514762868 
0.5557753986133211, 0.9941598260901002, 0.24430097256761674 
0.5993195407391786, 0.5728556941965949, 0.4224422283687914 
0.9451394678791705, 0.523481694962131, 0.2692801336179155 
0.541848120916202, 0.704703222545489, 0.22946979121034616 
0.4208604149936669, 0.32602328280271486, 0.6051010658813624 
0.043554289647635414, 0.8631231474011688, 0.578336052146629 
0.8719445280133897, 0.3284277789369068, 0.9109938266336047 
0.8997837423081484, 0.5582258113202784, 0.7465577703054637 
0.12580948976085593, 0.591191083111, 0.9233018892014258 
0.1429614413811, 0.4068731807697987, 0.23045508571904472 
0.9677963999757734, 0.7683023242314161, 0.9505823064115857 
0.8846503053392206, 0.08176553676028797, 0.7791489232116618 
0.5683970271137654, 0.12710628143090108, 0.24387497726025276 
0.20166762693304008, 0.2917798915631866, 0.3617063293659323 
0.9313627915624195, 0.9848188626627351, 0.8792986297897226 
0.8283018093333963, 0.06932610238220371, 0.00026030320827374887 
0.6681365869320528, 0.5791978493465257, 0.7219143955311514 
0.013928310717071013, 0.1938586560564397, 0.3126861129184878 
0.2894323830214247, 0.6801986091653773, 0.9916754454444006 
0.7341697678523685, 0.9744716839018789, 0.8493130272092746 
0.9365602541177321, 0.8278244245751001, 0.4595546036124236 
0.015186814847502172, 0.6295240657605047, 0.6552937761748021 
0.9969248599075513, 0.5416833555177504, 0.0020037000630366286 
0.3281668691422869, 0.907445381557772, 0.28296555521627476 
0.7692914968122052, 0.5424353542836873, 0.6853787394964574 
0.6525621888614185, 0.2518350394487745, 0.003989399875560351 
0.658911546607754, 0.9328596995004894, 0.40565756282601684 
0.30871424265561453, 0.9536044235804478, 0.3943996211881766 
0.10842460679998156, 0.24869606063556593, 0.38685240406608457 
0.4830430264628415, 0.4146083212663767, 0.4440331654825639 
0.47504783394417227, 0.7875216330438943, 0.4716485876787989 
0.5811513241623273, 0.6731040869208366, 0.6682198658681457 
0.5544856592436496, 0.5042971723859551, 0.8372681765090759 
0.4453390278122289, 0.08433869148874995, 0.10534331832916166 
0.6002639433666698, 0.7821957201106776, 0.088905204443961 
0.004331531994689275, 0.8807615218854402, 0.0016122912388117916 
0.49118404756271106, 0.802287395739934, 0.7573567384182488 
0.3929030552764654, 0.9486501324009002, 0.9183662446139075 
0.6070835537503718, 0.817448527626105, 0.1616483504235915 
0.1666643383102916, 0.654384336459882, 0.9721546566703916 
0.7389441090215021, 0.8839461921976183, 0.12164117966562527 
0.045523277750309954, 0.6981814414546477, 0.8259567348851691 
0.7042090350480837, 0.3580732264455443, 0.6872875612653968 
0.5145150705478638, 0.2504422407916064, 0.736128396693969 
0.47167540683660025, 0.762593865127102, 0.030294105464482524 
0.580305340829397, 0.10406178946203248, 0.2729274670567077 
0.866035016018452, 0.9033199409297807, 0.8497645923508427 
0.23153432047088973, 0.8659274001512642, 0.3696180454155943 
0.7710924670748507, 0.5005142157479804, 0.14921555714125478 
0.729987950508655, 0.29585584141969046, 0.5163313143202415 
0.5518437406181612, 0.6236226014552424, 0.6541571402425531 
0.31785792245342004, 0.9231803377517083, 0.621149880895622 
0.6433963345175517, 0.6255194517602305, 0.1253224202893659 
0.8702774107203634, 0.8366125018061443, 0.8585631699474549 
0.05464954675260281, 0.05858622481570419, 0.28177314987685176 
0.15761140101828253, 0.7296275994909107, 0.723406801435405 
0.9975297708429883, 0.9785288618990559, 0.19846750976584138 
0.7476999606020142, 0.48708278533931326, 0.45213834042420564 
0.9015992537484835, 0.5468939764005306, 0.5114587479799811 
0.08863913927469269, 0.05319524684244892, 0.3071866249623345 
0.5321291888122942, 0.557330688990959, 0.9354693112067097 
0.4108122219009275, 0.10368532758566251, 0.33250101111244035 
0.16979720496208617, 0.5911761138485921, 0.6057905506498883 
0.7346089670994063, 0.3732427122066957, 0.8829454132245744 
0.8204751922589463, 0.5257636924265169, 0.7774950867685816 
0.7549334301103241, 0.5920625988106369, 0.42124699252313225 
0.23425985325894472, 0.8331767834248948, 0.050425441576750774 
0.40463550050699415, 0.6766529711400395, 0.5033248435698381 
0.2029627527645671, 0.18930518453977974, 0.2534737859262389 
0.578150932723208, 0.8777320982619387, 0.3790862686412829 
0.33111751701754844, 0.6863282775330305, 0.4320452927090592 
0.40180947930940825, 0.12528349520997706, 0.19745591034002585 
0.9842048718193784, 0.08479256908977884, 0.03064664897432945 
0.6549607550782625, 0.5803665539131461, 0.34557958785336085 
0.8095341503424645, 0.7582575627228675, 0.08661488344761226 
0.7334870717815176, 0.3886361760392444, 0.09662155021215946 
0.6436630522080441, 0.7459804255000224, 0.6976447784306549 
0.6971185550715153, 0.6228084977169258, 0.9339887240688686 
0.6926839133474633, 0.6487817390026671, 0.6201503375119818 
0.989033311341052, 0.35297206969591477, 0.800888454744034 
0.8553620914898352, 0.12432095877292826, 0.8062232958035324 
0.7593939619206294, 0.7396056988740229, 0.6673954748765395 
0.3364603168958231, 0.44904053616869655, 0.6384940833754709 
0.8428394247303288, 0.3254210129646823, 0.8893145131722942 
0.4082477442707908, 0.2866259995707423, 0.3573685353323208 
0.04064744277209975, 0.8650328477815671, 0.3921998409821199 
0.6481170339409262, 0.4823235518162883, 0.4317821164578103 
0.2262981445602522, 0.36323700612090004, 0.9409001270804811 
0.6153240299921386, 0.4300863927267855, 0.08385271639469527 
