0.33895923422524055, 0.48056639958923464, 0.3821642814319678 
0.8730716212284351, 0.005576944460399802, 0.3286770032109051 
0.3447230955685504, 0.4356753480533352, 0.6027191192185871 
0.22916530380963096, 0.647522788164873, 0.958264995039716 
0.857131895257135, 0.7806259564940617, 0.3536975084693934 
0.7653383531462348, 0.7898846262104249, 0.19313802633383548 
0.41658769925555306, 0.4513790390674455, 0.5296699090156088 
0.2680222536680661, 0.9977860218493725, 0.14695246495038228 
0.7164805585772864, 0.9129437342705666, 0.2720474630278952 
0.49847277574947124, 0.05032961947391634, 0.3007393435042255 
0.32160018423971337, 0.8249635221848681, 0.24191829148752697 
0.8408063577500418, 0.47547022614608003, 0.21509326512344573 
0.5348910962696711, 0.798181938645009, 0.2696315377895673 
0.4012755161939281, 0.7777021868533553, 0.0718647453487885 
0.29294870316042365, 0.7921538780465277, 0.42139560539764676 
0.6176166397596802, 0.6778357721142837, 0.5785644627480061 
0.08114999936841127, 0.5647243427125846, 0.357565351021754 
0.6147276190178687, 0.9611105551117707, 0.1233893723655104 
0.1921032921714091, 0.40915780714442973, 0.48781514707634077 
0.9152368016671579, 0.15326325521208306, 0.4682165920868785 
0.048545595975801326, 0.7108522385369557, 0.38014494759868156 
0.731303124925268, 0.05717341239678053, 0.8886976777549686 
0.4259641574109604, 0.4542807116220119, 0.103398393179855 
0.9535871608134808, 0.5565581396544599, 0.6775898599682713 
0.8307717411536575, 0.44882749304470204, 0.667876081075681 
0.3579402981437342, 0.2094315283931939, 0.22859327973860677 
0.521092831190257, 0.21430256361797084, 0.3063126613034368 
0.7341889232065505, 0.9031823365645714, 0.5668346647042832 
0.2790640305570722, 0.04815063351641613, 0.8160606452564676 
0.13767595830822021, 0.8907491214533605, 0.6144349106953793 
0.6041904826187373, 0.9338557679074169, 0.16716595975660276 
0.5535087944474179, 0.2591776725061684, 0.9531719839072307 
0.6208471240279241, 0.2831898071529666, 0.6747721894060136 
0.20114679015585113, 0.6082064723812554, 0.8801403953583511 
0.375644972642628, 0.9903262765647363, 0.34289627857287364 
0.6013693381981806, 0.19557653190208169, 0.26831331501233824 
0.13828576864836994, 0.23650675653307596, 0.31287459677279505 
0.6710277291496844, 0.43270175963687874, 0.6917590519654787 
0.24030244878794982, 0.003952148366186181, 0.08620419149589409 
0.6525633481504519, 0.9816109316598663, 0.5047707725729778 
0.08729348680991678, 0.7490400173531017, 0.12323217864778535 
0.9110463356347415, 0.4548484298280462, 0.8899793130569013 
0.5480414821808759, 0.8515319128850994, 0.9567939211730885 
0.42918357410813146, 0.4453039833829199, 0.6286048371177284 
0.34222497342896663, 0.056376227594869044, 0.19072167551423147 
0.47109144494816513, 0.052353868159271344, 0.6428265738016801 
0.4632476482038176, 0.45730274287977135, 0.932354680607295 
0.30581852955009436, 0.8140609612254691, 0.611895651970791 
0.6775890351218051, 0.3412373888826329, 0.3552537088533043 
0.9756718188136924, 0.5161755096387731, 0.7684146352813019 
0.5740285372907195, 0.9701735344526169, 0.39987568435381804 
0.6301023938445373, 0.27235519546768017, 0.5890932534531466 
0.515127778588988, 0.43351424879213263, 0.6578650882259878 
0.7509681196297116, 0.018106165758442927, 0.09777002085219011 
0.19235000323397944, 0.018716796083431686, 0.23458066218196072 
0.9471018205263858, 0.11315855632306504, 0.8014754967542288 
0.6374963570585211, 0.40489945342026057, 0.3471528682902305 
0.8798935982263673, 0.2758132280078942, 0.5101771167502347 
0.8092345259038797, 0.3919364740343826, 0.2909916485628544 
0.3401501857683863, 0.3662592549480831, 0.5212423655692567 
0.13274104779835583, 0.3099860569650189, 0.6799610381559326 
0.4284162855082535, 0.705053681395776, 0.0116145916334216 
0.22279055962449446, 0.35225468454056996, 0.39746257494934856 
0.5167667126986955, 0.45510458039139645, 0.2387263792440656 
0.11258391164406645, 0.7722121434590221, 0.44060537794934107 
0.6772991942972667, 0.6665845033630564, 0.728707893251394 
0.18106227484695336, 0.1307774043469333, 0.8045572018840365 
0.2360560104400583, 0.5771673755691182, 0.8259985265875508 
0.8510221963602698, 0.832081809742278, 0.38134850525036523 
0.20386963757539278, 0.07545966720906361, 0.9668242728505075 
0.21097988936384027, 0.13313398546288135, 0.34734587058112965 
0.2821306036838579, 0.05010504950989092, 0.09162877277024528 
0.2159953201789182, 0.7560352479939294, 0.3300084678277997 
0.34126123460507063, 0.6129223880962497, 0.679753719574811 
0.14130393348739867, 0.012051281883563747, 0.07903867154726829 
0.5617644807455461, 0.3701507164246558, 0.03997586778036688 
0.9896334295150556, 0.8946630638024766, 0.9470355529270013 
0.1314333946366788, 0.9657868151372451, 0.37836641502401125 
0.813335564947851, 0.9158167823930321, 0.013293001202455246 
0.2927565244677268, 0.848460710217479, 0.2570681183277549 
0.19240068087625084, 0.1467885508361848, 0.6796751903678117 
0.13811439338915765, 0.3635686742572133, 0.18993399989405235 
0.20791593866362135, 0.4920823706817161, 0.031911386556979005 
0.46211736854572083, 0.24905662701953424, 0.5033301653502632 
0.39809669861360497, 0.4562216139057004, 0.9931280949454215 
0.4343242834148845, 0.16624924599683644, 0.5668584486849751 
0.5028383061075966, 0.2140884070147816, 0.028365694129933505 
0.531047621951929, 0.521623726137377, 0.024303225307936827 
0.28030310630702937, 0.058554255150420675, 0.9223700069755532 
0.767787163568957, 0.20134661424167177, 0.8124263672012757 
0.6940376992495109, 0.48522754928079703, 0.029676839275295408 
0.9191565817760999, 0.648008917284651, 0.6933156918497848 
0.6386607601094967, 0.41617389902051904, 0.5538080604412864 
0.3856305961945993, 0.40230420903513653, 0.9200214336149689 
0.3904283198725851, 0.39886832585342835, 0.6544483024163735 
0.43083507994246084, 0.24549585234704452, 0.8580045745192689 
0.699080384523223, 0.2794138557149052, 0.8865703260547315 
0.25668141986457227, 0.9559710302687688, 0.37605921856279156 
0.12233945810512914, 0.007005621571731457, 0.7016550142955151 
0.5908567807891602, 0.6603577444630467, 0.31285140538372436 
0.7254405444463629, 0.15879781016931294, 0.14967038318234394 
0.6682385468926956, 0.09447348538540679, 0.9528471358042063 
0.20168446918356986, 0.7987749765111362, 0.32669122223446745 
0.7956505463041843, 0.2754203027082507, 0.14628826140968754 
0.5726863978144712, 0.4272256416478105, 0.35738354732781286 
0.16758545760365884, 0.21824102803572876, 0.866486302739851 
0.9793956515199311, 0.256458468247591, 0.22281032433554915 
0.5478217340215231, 0.0900240394006564, 0.2800874847610635 
0.14527637201843835, 0.5723929102144892, 0.38055709008381156 
0.48168796150134985, 0.23818786235775702, 0.9815490192490287 
0.8161495967200523, 0.6940460041530302, 0.5705120019567254 
0.6959233530836578, 0.36732273929032255, 0.6747583107830659 
0.6637960092674142, 0.7138249399310627, 0.24416127256983589 
0.3187801682541186, 0.5645466367690012, 0.72052987065989 
0.04756983133389603, 0.8677659550821635, 0.1512946709187607 
0.5754850298725529, 0.5986827879430411, 0.4378154232298239 
0.2716116764289046, 0.10394784173419791, 0.25859895667194155 
0.6729675482697506, 0.46135033512005696, 0.13480944129924044 
0.5649859729632495, 0.4208817143894634, 0.3666929831898226 
0.04417644267033549, 0.6429773412910769, 0.15399458530271204 
0.5421029524379987, 0.8592927606612987, 0.4189672573000416 
0.6068983244444246, 0.580027089059458, 0.8334375467709764 
0.4593727634432674, 0.4620087934551629, 0.5415325834531909 
0.1468166077492289, 0.9096526324546299, 0.08236809940689094 
0.07624582919724099, 0.8714878551278138, 0.2788139492524693 
0.2946235092228875, 0.4491818419280371, 0.16527583687506786 
0.9742578768724217, 0.3876734649455583, 0.7581825947765178 
0.9877814382705892, 0.008182037430477074, 0.6170413683653911 
0.2614695814706425, 0.7987911527649593, 0.7071264046747373 
0.3575873654517213, 0.24923639828731425, 0.7402735642880277 
0.6887940028605543, 0.3203837908520222, 0.730998370178148 
0.06426612929955267, 0.7274317189050892, 0.5697679997515092 
0.5254146391294078, 0.6577952574168712, 0.010134223756137928 
0.35853486995705575, 0.6642627196166322, 0.33830348458480985 
0.19006915974182148, 0.7239041122850727, 0.7304251093297363 
0.8642320479432624, 0.7271287364668152, 0.661414044862427 
0.8994438765092183, 0.8363741468086773, 0.06301369749734786 
0.13113166771562912, 0.27655171516095156, 0.830030370657529 
0.861653458643547, 0.3923066855115266, 0.22458243514650733 
0.07481025306316691, 0.44520470845322024, 0.7413894354866728 
0.3587407722337742, 0.7209072462275506, 0.37761456244044533 
0.8584569304825228, 0.9200544776893168, 0.5124770759090568 
0.17723796222275467, 0.3655300665661029, 0.24796307951331842 
0.7350823168626518, 0.3404919180596292, 0.8148380663095388 
0.7638093998219232, 0.020109186815411406, 0.9490459762364195 
0.19449717897147178, 0.3534404476313623, 0.5969369768967789 
0.14798182381236624, 0.8505354601222311, 0.11118775307575013 
0.6051310274871382, 0.4219056621262173, 0.386284053081535 
0.7427439473128522, 0.09425627810711668, 0.46623902914965965 
0.6244832342821395, 0.25287457400287405, 0.3972482661667964 
0.38942747797947463, 0.9557202020494282, 0.35085912315791834 
0.901578403035841, 0.021975071126348555, 0.6957931908174724 
0.33054145686443104, 0.8058173668126983, 0.13625926578162295 
0.901875549580065, 0.7756921584003286, 0.704152540524824 
0.014604901598770259, 0.07328625143509282, 0.7710639290631915 
0.228747995429038, 0.9250978600688439, 0.3169382024057795 
0.9635219747953059, 0.7965146596371377, 0.9705484773528783 
0.6365342802373972, 0.3729947739866981, 0.5191761518228803 
0.020742970600853505, 0.4159459322578729, 0.059387305845168936 
0.6737094110869432, 0.8288461586469604, 0.504302049668449 
0.09178949017379101, 0.9237140632897456, 0.013813373238878102 
0.37765384313679784, 0.07004410316291398, 0.5440678789272451 
0.9357810998888799, 0.35755814565436017, 0.5165087504003916 
0.893501628152802, 0.6298000097967484, 0.44590524215233074 
0.17545596531909513, 0.9322269683118807, 0.74177175557577 
0.28055695085153787, 0.053045833498091, 0.24322921104128659 
0.9332579339360234, 0.18004008520776904, 0.07924900897114318 
0.6561265582868127, 0.6134170276723473, 0.13674511791891064 
0.11485528086970231, 0.7378154572219272, 0.42966878758800264 
0.6060793485183237, 0.20383192147567875, 0.18696310611985067 
0.46612523151610785, 0.6333909571553306, 0.4266108298772322 
0.7686327036113955, 0.4497684911567784, 0.666438118109967 
0.8408662521697043, 0.9842349627329227, 0.650119115954842 
0.9255092772775764, 0.6504945809543253, 0.1478368900583995 
0.8211677513619906, 0.9881001396967912, 0.3991731551413762 
0.7489898119250585, 0.14072754522833253, 0.2655895821910992 
0.5842282916396658, 0.19959432316246994, 0.3848050189857808 
0.030215537410643978, 0.5710316032427957, 0.21212406340632328 
0.6769678084571674, 0.06002571661917444, 0.12505421181984533 
0.11870118067442814, 0.4665248096000576, 0.12723754611023663 
0.8724149060925332, 0.01116891323195457, 0.05572046085053073 
0.8798746078865566, 0.9534031195446478, 0.7646457402482191 
0.3053557546854807, 0.8676408659175133, 0.392712427137641 
0.7584827033272713, 0.25275274347016086, 0.5885121213058153 
0.5845079356736715, 0.5803451099571095, 0.246040351592817 
0.3598647078381696, 0.6631195708674519, 0.6431791298357235 
0.009994111025443564, 0.3837524067146064, 0.5507668066826541 
0.8155824849095524, 0.552263517622447, 0.24309350120815887 
0.38642636277154896, 0.549259783473946, 0.9425619894923728 
0.818905479149294, 0.3110501512736211, 0.437187233812975 
0.3775554561226582, 0.9889179077687631, 0.10082932113989707 
0.837460471992844, 0.7654193358192329, 0.5558187098427991 
0.43832371760918254, 0.02423478931757672, 0.8591186116226488 
0.18263330115850174, 0.5397000829866413, 0.984663869965549 
0.8454558136595213, 0.7857437578212552, 0.63639303350476 
0.2625580332186819, 0.642008879312501, 0.5336824539740037 
0.3768852374644074, 0.707526145591606, 0.011249627860372091 
0.11580026939437049, 0.2710078388991787, 0.4205178292602354 
0.5871722224131604, 0.20369852826716273, 0.6933532741351854 
0.9773316058842162, 0.45618283017321937, 0.3905827790764709 
0.663939260788692, 0.23462098701856982, 0.060319074019710706 
0.2735519372238586, 0.13595788474443926, 0.28352871952592806 
0.11871396436288428, 0.0014905187353501104, 0.7113230188620526 
0.8673225790960047, 0.33934405709173654, 0.03051516792176734 
0.7354291045257981, 0.032835513401470395, 0.8512952521557354 
0.6103521916700997, 0.9251732997362772, 0.04302549446703052 
0.3616643163664689, 0.26367974074145595, 0.6001368809344685 
0.8577529117424619, 0.7025244308109061, 0.6997910165109142 
0.9797910637888531, 0.4711695671602242, 0.7509444904248901 
0.624543652445142, 0.9864804909188294, 0.6740926079979833 
0.12365627766078036, 0.3916386918288032, 0.7753742370786345 
0.3662018525784043, 0.4613414810115747, 0.4512513346569067 
0.24527566573093973, 0.8572271478891292, 0.07793199985222443 
0.010870606166428098, 0.32787283444399473, 0.2364806806212374 
0.17776522229118374, 0.5724809138025021, 0.05840797867981162 
0.8031191842678598, 0.5483338447192317, 0.19716924830753424 
0.11793860063009098, 0.8291174607641432, 0.9566182815009016 
0.037335590685089404, 0.4530487416431629, 0.22555893786849013 
0.65102981349327, 0.8236842829714084, 0.4157141214212713 
0.6991122257300375, 0.3872301042934878, 0.9846554386705515 
0.7893711997353159, 0.6862451507964749, 0.6730347941147502 
0.19884229605159975, 0.5477022016415609, 0.451741013908727 
0.7216499742652936, 0.19702754366545516, 0.9767351276054531 
0.9019317893508753, 0.428636706330753, 0.7350000261008444 
0.7434027884536117, 0.9510512917457095, 0.661576895806426 
0.19108195443632958, 0.8245420762680716, 0.23091860427372346 
0.14580926454259469, 0.057658288148758174, 0.7897603063807932 
0.020823246377908222, 0.9804421149931882, 0.7024023164051165 
0.9169237236887632, 0.4514344634860811, 0.5721882501085057 
0.2895825048146514, 0.42727052483449757, 0.3055168660014995 
0.3540360590186, 0.5836092955165288, 0.8015596106875115 
0.4280643917061675, 0.1322012697991951, 0.5786689667785004 
0.7324132742365237, 0.3908697712302083, 0.8802490240409088 
0.4083643456194741, 0.3920026970123598, 0.9174349181800504 
0.6716105920855904, 0.3583816584654471, 0.6050125088104125 
0.5867140126629363, 0.24664796713929693, 0.9006976443979917 
0.36716582971104295, 0.17756654929079319, 0.7389636140350279 
0.11141852589710899, 0.06927507812055389, 0.5696846158229526 
0.970063171680688, 0.95381737433501, 0.2780991005187661 
0.20581770054128767, 0.5019526601446835, 0.8716616600672198 
0.8924627091642894, 0.5476403888597192, 0.13387820770688497 
0.6072013315471613, 0.22974008232770804, 0.24300193539498705 
0.9676546415453617, 0.4081293442724776, 0.16559297677781337 
0.3508387124798178, 0.9163982085338201, 0.9945639468068571 
0.3108660848716034, 0.8622108783649346, 0.791752990712239 
0.21527395061092092, 0.33198700298448613, 0.6392573359993375 
0.3504767474706446, 0.8011612560518545, 0.19372809395412505 
0.9426425863999254, 0.14032361822423123, 0.6585223283922332 
0.564287182602811, 0.2730944727917649, 0.23239597843171145 
0.16723294885561613, 0.5699576597248005, 0.1984896473578024 
0.8025453135997203, 0.5655633517182642, 0.8458098737469385 
0.5917443022826978, 0.3877826252676073, 0.20773109686169822 
0.07022836295609725, 0.8442788749316349, 0.4691619177405494 
0.3268013812952475, 0.0948764657522887, 0.13730456357279996 
0.36182603766900945, 0.5077942408065207, 0.3545674666331625 
0.9052892552378419, 0.12377836240342577, 0.07507188120880659 
0.2094527772151603, 0.24386367014134314, 0.6319702538847742 
0.6237636149035373, 0.8914472225999597, 0.0004527070565398805 
0.2213292078752208, 0.735456635330401, 0.12258257983639409 
0.8177118106825915, 0.06365452202534416, 0.3489477534532026 
0.36513713183190066, 0.6197028860721026, 0.8202845210783404 
0.30040238176919365, 0.41985074232026187, 0.39138874188882655 
0.3856795109753004, 0.9113124061780152, 0.8008430868958303 
0.30291664885176606, 0.12104354745323309, 0.209422007078922 
0.48061339147845195, 0.31256589086766207, 0.35114735803569397 
0.6031939791965875, 0.636693088319099, 0.8912695278310256 
0.5147709205007857, 0.04308543743929227, 0.7821013735487549 
0.932671892396354, 0.2853748787997469, 0.713895634960774 
0.6612657226084325, 0.2067673361846064, 0.4280617464696054 
0.4999801515753959, 0.13400768931643592, 0.8424512818863369 
0.7438519640836991, 0.6541670794025454, 0.39009041063023264 
0.7948922172875149, 0.5677703872008757, 0.7527382945090858 
0.16049112043472757, 0.1851419842906682, 0.47062387650068294 
0.7846856533139113, 0.06988121547735437, 0.655315066672377 
0.3115496680139963, 0.08195688802152423, 0.6269170839304883 
0.2598363538660877, 0.9883495540203932, 0.8928001251748815 
0.5980977345730241, 0.5130570320331768, 0.6472238494341637 
0.6718041877305613, 0.20503520650293494, 0.8105171994100583 
0.2547750262108489, 0.7428381400354451, 0.5178399935631127 
0.5189596027629509, 0.5976271060175272, 0.6091507635450725 
0.31686071166713214, 0.8989093427110147, 0.3983958566982365 
0.45022966998780145, 0.06566192239922652, 0.9103717941690249 
0.060370813481009034, 0.59360377929843, 0.28799710236100096 
0.5328785348708333, 0.42231834700775917, 0.4456005020404632 
0.6684960910782267, 0.08126315384087723, 0.9255557568408831 
0.806012047291048, 0.1945804160407324, 0.48997617533735915 
0.29315715354938665, 0.37027121778488226, 0.7145087361736802 
0.8673543969029937, 0.5841374932334683, 0.3500769527093187 
0.5415118763126725, 0.22546027319823048, 0.7640506203983164 
0.8985618044077199, 0.8135516155659026, 0.3281433270309144 
0.4026145141242581, 0.6752422746956532, 0.3436930072854254 
0.691312016393138, 0.0057830525072744, 0.9951199734243689 
0.5150099562306114, 0.033377449969958395, 0.3947544571992575 
0.633337625660796, 0.39911792714413086, 0.6003989768100307 
0.9537655374464269, 0.7678513319706951, 0.4131439632190981 
0.9802687425468427, 0.6634382861849238, 0.4104842389619462 
0.8973100346900401, 0.8307548512323143, 0.7202124936101865 
0.8788935635237278, 0.1939290362178514, 0.2717422257951869 
0.498512736150187, 0.964685758051944, 0.5199605312937756 
0.7504368479090033, 0.3085293934582516, 0.9242197770653879 
0.7436497466238134, 0.6746340845377402, 0.36964467107054877 
0.8952237593743032, 0.4656077748638777, 0.33311140270122375 
0.4257604672069635, 0.6994031156800071, 0.266639432399832 
0.9165183271361985, 0.14002671535254319, 0.9613399852848068 
0.44619149651893897, 0.7440402964342662, 0.25583641334388274 
0.4914777952266497, 0.7157156063101958, 0.9032404961832876 
0.9995037638395383, 0.4219530177744023, 0.8804288819070096 
0.3843405903434527, 0.006001056300643848, 0.06617917481004054 
0.10690186154847658, 0.08509086591074244, 0.9701011280047351 
0.5967999332474628, 0.44555809096874166, 0.964386020329058 
0.34743922078811096, 0.640481218318049, 0.526364734303262 
0.30489246189401564, 0.6736757962505652, 0.4895042092518487 
0.20847944429784915, 0.9776213250581574, 0.2798859129149597 
0.3445195296296977, 0.041217659463642864, 0.9646705337679046 
0.2278263027064953, 0.12094522034282351, 0.4703656453382544 
0.14690767474951738, 0.06056438397386421, 0.3549336194573335 
0.8749155661626304, 0.3559813530217717, 0.9761841599730101 
0.9771833136388994, 0.16082367556470845, 0.9830085925256262 
0.2802659492086207, 0.17245985028585287, 0.8512860013826868 
0.3636486771798717, 0.49219819635271145, 0.3840961281845279 
0.6842767750777732, 0.05377145959942753, 0.26061024680822087 
0.07645220463444735, 0.010999137144094173, 0.4316320188610536 
0.3815071660421304, 0.34800218864444477, 0.18127234289209382 
0.3366654199372139, 0.01940499938079776, 0.7761967934926773 
0.7870589807736481, 0.9882698718727473, 0.44050447585341623 
0.42385160137488653, 0.4696405736779957, 0.041317975555573816 
0.1803912982607342, 0.7315380260389169, 0.21475184932549107 
0.18462206935201908, 0.17202880414551602, 0.8904472475983829 
0.42584883271599194, 0.38312495428603643, 0.8995711575174745 
0.2960762802682956, 0.6687673985864946, 0.22003492864844176 
0.2809964051214259, 0.6418872032302153, 0.2476808366824036 
0.8485601145050451, 0.8304332244826717, 0.6670100705140881 
0.016420391498387366, 0.8474174723089429, 0.6725338831614507 
0.34282253419826847, 0.7498038590092784, 0.7997453625678778 
0.692623939962455, 0.18027954680681246, 0.40858801517337473 
0.48665921980783144, 0.8173876435726449, 0.9596785153597167 
0.2660570706169696, 0.16088928197020802, 0.04943111970444758 
0.5095843437802654, 0.5463271265239761, 0.8262046639025484 
0.8692922904220378, 0.15586955415703152, 0.2331314699986511 
0.3962566049304601, 0.15176273133867157, 0.3308950565317116 
0.15618595916621958, 0.7409470474949108, 0.25330190027767563 
0.29246012132821375, 0.5864905025134349, 0.9426515027752009 
0.02992653886479879, 0.21813400800695204, 0.3422530693887922 
0.8208982139677667, 0.21512884621594408, 0.08209481931564022 
0.8424591837984908, 0.387894684920674, 0.04171835748961117 
0.4373017079269317, 0.6460437527127234, 0.5430374797969916 
0.3484042676909934, 0.27844545898599427, 0.5836852009802551 
0.23082256479498053, 0.4788932351856957, 0.9729972709022254 
0.015300443155980115, 0.608149069943442, 0.9563032394682224 
0.06166220285144819, 0.7091943444377009, 0.9735773784246425 
0.7117440436991083, 0.08850682801625975, 0.1670786421125069 
0.9142787016064212, 0.2411684365957253, 0.2497577586766312 
0.2238304755469639, 0.9213386405411559, 0.608992615951945 
0.5367180909002787, 0.45609337479214296, 0.5422364822628774 
0.6453525222392243, 0.7698718933136549, 0.7432842782930308 
0.5862513685201065, 0.5696662295903657, 0.7663340251695488 
0.3846365389476405, 0.5942218870831536, 0.5354447837076981 
0.4725181473879092, 0.8175757025209053, 0.9603837999660984 
0.5600049700487927, 0.8912029476825751, 0.27743521827628537 
0.7530086311911969, 0.3408767694603366, 0.5383161778981133 
0.8408326812023468, 0.05828416783104784, 0.2685489984969184 
0.9636770275371657, 0.009503900445952285, 0.5883394063952704 
0.7935580881749705, 0.8808838140365233, 0.5064650278854924 
0.050940950557335274, 0.04028446438053168, 0.6215185959013625 
0.8814190068111084, 0.15769619053549366, 0.8488388079669054 
0.9763960924731622, 0.5749345954575982, 0.292521408907469 
0.2237061787892849, 0.4136674176353985, 0.35790595132064507 
0.5657734553741627, 0.40983194863499983, 0.48114208083858057 
0.9015231092140479, 0.0054613110381731556, 0.4785228840845297 
0.6885750886597329, 0.3680118410807022, 0.8571725012599477 
0.5160296074704983, 0.7636651463394243, 0.9457072164228557 
0.7486937976150884, 0.14250982555141956, 0.10341714507093036 
0.9670756924743089, 0.3657850428154379, 0.8127714322844567 
0.2716036377442058, 0.5461924106474311, 0.9132586115890805 
0.46828996357055996, 0.9441275034220383, 0.589109364268235 
0.05564115771136657, 0.8492971210047947, 0.6101812598763084 
0.7311668722959075, 0.12620437660291506, 0.3331686520071633 
0.17131903395795378, 0.7127959382199084, 0.43033609241224524 
0.5648785995372833, 0.9631733993303444, 0.5066860866853663 
0.4057824972076066, 0.8252990543799746, 0.10559585093596513 
0.040267696102598394, 0.3155249342027494, 0.49388846325275215 
0.6171456439583382, 0.37812128904948517, 0.302007202531563 
0.049564379955817195, 0.4038029310831297, 0.9307082797527613 
0.34356919053320056, 0.518323452471389, 0.9600320330203161 
0.33671125078649566, 0.1293680396995569, 0.3683795700725143 
0.7868366715556194, 0.4559229035516251, 0.186605520261509 
0.7763326872317283, 0.8625743695953246, 0.5523463648734968 
0.7602480528600843, 0.04108916387535411, 0.29121468304650633 
0.7005389384983675, 0.7464298981953652, 0.3595299960274111 
0.744961203679573, 0.7509737496962796, 0.06566931713459978 
0.4697139049553327, 0.8567988629415804, 0.28725869597684295 
0.8899282964114156, 0.8297294523688755, 0.7362705298163758 
0.8402730315950736, 0.39377074063273554, 0.6419088749353548 
0.2711818561302288, 0.7604093316441607, 0.35561578117938863 
0.4832021923660159, 0.5329399043224875, 0.3418244416887515 
0.8517540572623432, 0.7849408071095679, 0.7668112093720201 
0.9102186647518544, 0.737293770233243, 0.011187002628183729 
0.6911623060636691, 0.08781968342060886, 0.7378197280669812 
0.21130421139904831, 0.41852563402312537, 0.16090927515663755 
0.20498351821174365, 0.7630081186035891, 0.6463205839228184 
0.4058103171619829, 0.5205352717107906, 0.7249213098591981 
0.07980635111890388, 0.7026226132855857, 0.19850461076177472 
0.18410631529457555, 0.2929654099798171, 0.9002269133806162 
0.5772188048141917, 0.44135478137262507, 0.5060371639032788 
0.28171442635338007, 0.9916164051754337, 0.17729528564195185 
0.2638818523489542, 0.7517129222206318, 0.3094486332795021 
0.04957856924212567, 0.32968087763428355, 0.7648997754139077 
0.9030381525255575, 0.10085409455930949, 0.6289655749435278 
0.7814270577079621, 0.38658998305881587, 0.9846655986854251 
0.08229167076568311, 0.38038097744023747, 0.003947599652108336 
0.3806721711889719, 0.24041336908505195, 0.987296997448386 
0.6838494088753477, 0.4729109349424284, 0.4783751023202808 
0.8519028721583763, 0.46925018192546386, 0.1696120505352069 
0.8772632070333077, 0.9472664846768238, 0.20398350201444138 
0.8868578097126351, 0.13614249699970526, 0.11973011704249814 
0.1571167489689318, 0.692990885025724, 0.12053984775386895 
0.2652089922340757, 0.8531255448972639, 0.3356189913999631 
0.6356438788737939, 0.7841350288899752, 0.8620848570557293 
0.6234901832234108, 0.8072848602716549, 0.10586292414374254 
0.17605516803509436, 0.8769129903757401, 0.58203012829942 
0.5118624692943925, 0.3968316568591115, 0.5890716895964981 
0.4566905134755077, 0.9838556307360928, 0.5583407411071425 
0.5113271961097521, 0.16635435360870632, 0.420744288571962 
0.2756160486787981, 0.6617303559530947, 0.5556497454207611 
0.7704376845745603, 0.17749081652643361, 0.4016475893941792 
0.699060359985719, 0.56282908996885, 0.371018475532947 
0.5651160454221089, 0.30121431637941243, 0.34402923944234787 
0.9112928493285699, 0.5072928596354314, 0.9442751644851048 
0.8259412615571474, 0.17506165176628852, 0.43394805633866607 
0.7468402343627686, 0.9752924912616063, 0.9494058133002402 
0.7825930446929928, 0.32524195690128976, 0.04145261591429028 
0.019681267607053465, 0.5784532632448209, 0.8481144345649823 
0.8313008960284939, 0.9219230685964602, 0.2882161379638898 
0.6501195394902519, 0.3908203425827176, 0.5656863092108677 
0.1945179584336859, 0.3494264881571252, 0.5414322904030384 
0.2073460348052285, 0.9493167219465664, 0.17933720789772134 
0.8297168664701285, 0.6838213307101499, 0.15676495663506695 
0.3406734772231891, 0.6287556884654063, 0.42978643001371397 
0.8209962932931886, 0.46733991488489557, 0.8262195914277827 
0.4917596338110257, 0.629050176415307, 0.16517639604219303 
0.8315001975038125, 0.06465788062300515, 0.4433529491639683 
0.053756751548380666, 0.1408528931039471, 0.05794343118498624 
0.3192473269749636, 0.07831807777050481, 0.22084877710893247 
0.8738993019963072, 0.3779596371371253, 0.4369805655276394 
0.5415971834788457, 0.9434761478507206, 0.8335649400377231 
0.7331571755304076, 0.4228726325088987, 0.7711654927821552 
0.805961780572685, 0.6425622252684309, 0.9316021161684106 
0.9980815550421563, 0.5777075385409732, 0.42674899335384475 
0.6555998948790792, 0.4349178479966269, 0.8413402189186924 
0.8702702329934602, 0.37450646841873314, 0.8269561198147292 
0.49439518121996673, 0.41332888336071627, 0.3543941960708725 
0.0802981700627593, 0.6163667964771962, 0.1355477047725694 
0.24687999476962863, 0.7948818650047818, 0.4923914950187268 
0.059107928068245386, 0.2292643167018087, 0.02132746944019115 
0.8044165617259059, 0.3558285161588082, 0.8158682442614281 
0.03779952107505524, 0.1373779711679477, 0.026210469914481838 
0.4376989865633327, 0.06952501356995744, 0.2630198693206669 
0.8548209104683235, 0.5465621162162633, 0.9202174994313992 
0.38749839792738694, 0.8111501232086961, 0.9279704576333512 
0.7304413151659156, 0.4287930153049705, 0.823128150746984 
0.5322419193214973, 0.8729569961713609, 0.9337716860110367 
0.3643220113726424, 0.5439039953195731, 0.15224690403987484 
0.9164406258866731, 0.08770467745457178, 0.4600549633722586 
0.7038765938891987, 0.6311765344633357, 0.21395294571855716 
0.8679046099786106, 0.2846234535614771, 0.07379226085990154 
0.7875733893263726, 0.05203715116950525, 0.6420637708566582 
0.06076260916552545, 0.6657379528882432, 0.5789984866106451 
0.3312600562421012, 0.5714880867744011, 0.4899393797505589 
0.6924886434519664, 0.6105408542436701, 0.6495706798789002 
0.7186657817624921, 0.5202567321264991, 0.6789504260948986 
0.12806168897956938, 0.9930252554586286, 0.7607062412566701 
0.9926236966651923, 0.5062419015105328, 0.92850275448098 
0.8655741134309158, 0.908835576986586, 0.26834115616685406 
0.6122420565938959, 0.018737085478941373, 0.9167284311488932 
0.053280741492669925, 0.7077217594548324, 0.025946258106201325 
0.9293839278878393, 0.45266508215965673, 0.9618512630516958 
0.7926672463311338, 0.36790884380109556, 0.4140898120297768 
0.5094459022660793, 0.6889252737046779, 0.25646743481920997 
0.3294686369796318, 0.09182056310335174, 0.13576107412710126 
0.5042932012980019, 0.7099865983940707, 0.2917025138027871 
0.40689448409887474, 0.6761162663322625, 0.6087783628057626 
0.29797118090119756, 0.28732945116536257, 0.6677470066750604 
0.271018500971263, 0.6210138081893071, 0.036950685834109986 
0.3300416834458446, 0.3722634169338388, 0.667667181602562 
0.48747897467450396, 0.9253515133792769, 0.30856024610886035 
0.5576262240384889, 0.7498170762488716, 0.14776234229350682 
0.7774794445381995, 0.8175274846506155, 0.5191708095061051 
0.3104513060398646, 0.8243557199034816, 0.059055542414415685 
0.4182543300899415, 0.69554608209356, 0.3466293516470049 
0.16588875983934837, 0.5418650684778198, 0.4498886692880919 
0.5754713956139512, 0.09475903771142946, 0.9279797266595143 
0.36442544300438084, 0.6049875988373473, 0.7571594916970686 
0.3254470249315473, 0.6617778121594725, 0.07351868711635845 
0.27486299889723587, 0.24757271369635858, 0.9094582271059124 
0.10126968639477463, 0.7777815677245599, 0.6958449198077944 
0.9628604655889286, 0.17399499893069426, 0.20758770177968444 
0.7065548461025782, 0.8399888037826688, 0.5071989166438426 
0.34658427281171944, 0.3913587682200449, 0.3464247311143043 
0.06681544848186916, 0.8793950722041224, 0.3087839365966706 
0.420031037025422, 0.15033286161571147, 0.16371093147625226 
0.0777338022038373, 0.42902001476542373, 0.9256637663727366 
0.7211910866883113, 0.06561569777545462, 0.5720572323918285 
0.5891058344602792, 0.784386728498154, 0.6891841379301437 
0.7686989424731728, 0.8709083335920365, 0.3403833468199262 
0.4949464062248933, 0.0896239634674395, 0.32512053916126993 
0.45615696801715233, 0.08219553521610867, 0.08191821189527215 
0.05294401258605275, 0.86118823845028, 0.9071672963757507 
0.8120264529043411, 0.7199231834171819, 0.3872106101097218 
0.9110618580041296, 0.4063383568082106, 0.19266160360457218 
0.13557607065424127, 0.1798304681402655, 0.3712896687897421 
0.09211410412532783, 0.1780496471855949, 0.6220189043159937 
0.13913552049745737, 0.3503580040939037, 0.6369928005289154 
0.8970398880683113, 0.6437995248977847, 0.9494139527789247 
0.24100551699164996, 0.6882162222964342, 0.597310809787425 
0.6699857673229975, 0.4166208189904951, 0.4340807305761175 
0.49600007880563657, 0.5688464297087998, 0.8987666238167547 
0.0669677236101408, 0.06848862430901825, 0.2814206266360205 
0.3387247930053773, 0.7703600727606779, 0.6183352513545748 
0.2600457745445631, 0.9351503620072086, 0.7406425736352226 
0.30818369857867556, 0.6994867281178709, 0.7726358346248835 
0.6936672381085982, 0.7798530485106878, 0.27540653719308117 
0.4558332493175822, 0.8012762411586871, 0.5978040068577105 
0.6262625526956805, 0.07360723920742807, 0.1500216842776303 
0.3941546337273808, 0.9838482713128117, 0.26551527592266366 
0.4955396031345587, 0.9893304900616908, 0.24587718695515193 
0.38573139530310496, 0.2429673157712271, 0.06549901576799677 
0.9468820067584603, 0.08453643640846731, 0.08208774167805244 
0.27148798178888467, 0.4779359403307447, 0.6633264263752314 
0.12479400491556669, 0.30872868694262245, 0.37575508749613806 
0.5394533352532803, 0.05704856053678686, 0.3743184548573326 
0.2760043650801538, 0.8155865068894438, 0.4432191169563888 
0.7526571755241103, 0.139419942332615, 0.1814069911047823 
0.41475545189314367, 0.6209726241513481, 0.926456131108992 
0.13937173312554607, 0.5595004353831967, 0.0384652700288568 
0.19310962706176837, 0.3403535854473394, 0.9956425539976487 
0.8408366753523951, 0.6067964589352738, 0.6285262471583865 
0.5353208668890462, 0.11943874321945347, 0.9623971219812124 
0.2518144812873272, 0.5041327030532962, 0.335592578799929 
0.8075683482554806, 0.47471092391411407, 0.0019297460503020503 
0.3178252254544548, 0.5483994491396286, 0.42695782103677793 
0.8449923846148304, 0.67442133730217, 0.00016510592113694322 
0.3068814659898992, 0.3477324362092695, 0.20469066034851657 
0.4789866673628286, 0.5767017028694553, 0.41428183295378396 
0.6457109584223738, 0.8869525659022118, 0.8752082653001613 
0.8185038392679326, 0.9010031909764402, 0.6386550638408284 
0.5556417257899201, 0.5003951653906907, 0.9885700731078052 
0.6532777781375915, 0.18868842436756084, 0.0420912837555687 
0.1215680043713554, 0.5492654849872625, 0.141357488395348 
0.7691884899149697, 0.6380294720801086, 0.3720581724177935 
0.7463956264486699, 0.8344775899947852, 0.6258419413203327 
0.01888717298702014, 0.8070131207481722, 0.8472595950289183 
0.9810947854146403, 0.703917897245746, 0.5819307481822861 
0.4415603060762635, 0.03871601659060531, 0.6827829813048621 
0.13632334859036677, 0.7072234252622855, 0.8851920571843139 
0.0641065640488766, 0.5752196353631175, 0.768575601755363 
0.5648849371246796, 0.10043755685876299, 0.7443115562626963 
0.64853422363702, 0.30424247436590524, 0.5628267268693257 
0.01222719326607602, 0.5800082777907097, 0.0014281056758920219 
0.34187612284008284, 0.024714028576933167, 0.2986956993442812 
0.3908449955606915, 0.35638982573165046, 0.30751465873222394 
0.7712158346752248, 0.6428186782917312, 0.16463027778128214 
0.3082277592099185, 0.6381133015357852, 0.7704811833225437 
0.23759922804033562, 0.013159468094962712, 0.3613217029786826 
0.7027943660450219, 0.7488425354809917, 0.875899450147004 
0.4182934898983999, 0.727335740195221, 0.7950815186183 
0.7416389666411187, 0.9603828801982898, 0.9863408966088653 
0.8751627580639553, 0.5984903182485957, 0.8191681327494947 
0.9815486850971563, 0.5935471749187505, 0.8758641363380621 
0.7331385220526606, 0.9761510161779398, 0.10106378900117219 
0.49024628553608585, 0.7854012306339893, 0.9708144121185903 
0.14176126020234492, 0.015300180146032627, 0.2038637113916706 
0.596788377209625, 0.27198483346649416, 0.23653566026842587 
0.4098936582211422, 0.817775533434836, 0.6517031502974978 
0.23049005712118187, 0.9870224058178388, 0.5810560683640513 
0.642571353558967, 0.762079653385578, 0.6912328322473321 
0.11940176264509594, 0.9611028523906134, 0.4233978488860154 
0.8000918311287323, 0.17236622266565405, 0.7079003525286406 
0.6348280243157246, 0.8146992294828513, 0.06606918920622962 
0.7575790036300726, 0.9249976160305344, 0.1453634905268758 
0.8605633100619849, 0.49395698043931113, 0.5400616849774923 
0.32749581443960174, 0.08634902426622115, 0.2646753762447168 
0.27102382864339236, 0.35681559084573844, 0.25802300328792005 
0.46990462571499925, 0.3039982085038756, 0.16815250669121584 
0.13698826757656202, 0.08414904258521161, 0.42636201859658385 
0.1540326833425404, 0.9648174132419016, 0.18006714811754432 
0.8085523467913892, 0.41926443861576546, 0.8286061453828976 
0.8353870776061155, 0.0605174710444395, 0.32426000423226753 
0.2415800195213922, 0.9073591576548032, 0.9163680921552713 
0.5629509587844508, 0.7170571084687868, 0.09331208195242224 
0.7829142982123137, 0.6918491049954991, 0.9356143580223649 
0.48759224975509585, 0.2020915219359719, 0.5021966588678077 
0.6690841098940483, 0.45510145273201175, 0.3694902571576586 
0.34579797723178785, 0.5378390109357789, 0.9951939712444704 
0.8355761889018612, 0.6460068585609291, 0.6528140448710646 
0.6942518018616702, 0.8203763493221362, 0.46322728889111475 
0.3696336634903725, 0.5345867831677137, 0.6239861171877183 
0.7956233750794531, 0.494545253986724, 0.6809616069358567 
0.3501110771739736, 0.543518768092994, 0.766688009132207 
0.2466389784328532, 0.10334243173865632, 0.26884545297781604 
0.21103742510718793, 0.671778830694096, 0.1677537792161099 
0.5025334706583119, 0.9189790401361494, 0.4056284963955673 
0.8354521093960243, 0.30157703201283426, 0.956447689929025 
0.30395955544815445, 0.025494356889215197, 0.59083551212543 
0.16249728446323375, 0.021836363736411513, 0.9342005371478769 
0.05992160804468327, 0.376821557718519, 0.7181367176764558 
0.7474028443725109, 0.7689524512105771, 0.43724819156237604 
0.29218628467247354, 0.10675889743062683, 0.9412278028008908 
0.12226348929699016, 0.2358730744114942, 0.013309427476967173 
0.8694037979285192, 0.7268404368865479, 0.8824911014499636 
0.37680467614281965, 0.6172058773052106, 0.3492976625596025 
0.3801157582350666, 0.1460627378951017, 0.9968905167320122 
0.6777759287896491, 0.42620948857725527, 0.6321261082440183 
0.46126150844535097, 0.6890139155880194, 0.1906943637992793 
0.39179449666994504, 0.8286300801798716, 0.16583466587610507 
0.08480108484301618, 0.44311851969572447, 0.8695702075869948 
0.2861809522643174, 0.2549535293455255, 0.6638724128717615 
0.680137941347952, 0.4902892540357202, 0.03186601860405558 
0.7323187417504766, 0.8474629968517255, 0.337393299774317 
0.14880311052725137, 0.4837772367122083, 0.30932036062771795 
0.13764290439495575, 0.4632894263254683, 0.3025755516676717 
0.6677139855771487, 0.34467601097272993, 0.7518974363216517 
0.6252284974476513, 0.7856633999292605, 0.6098365469012568 
0.33232072318840167, 0.5638916191228653, 0.10323561212129584 
0.3807519368272808, 0.23389050615371443, 0.8446042864848791 
0.8381940658397444, 0.109851698247586, 0.9195361555383731 
0.4711824814337392, 0.9888507206203742, 0.15127983826178248 
0.29614827374572905, 0.07984583124972555, 0.33501470043957815 
0.4304580953598284, 0.3817359659198708, 0.9081491683543405 
0.6388100012239858, 0.34377666360870496, 0.5495304016012889 
0.07164124568783936, 0.040249596519503994, 0.5933987161805331 
0.4579006980898698, 0.6738912916997714, 0.8909835461187126 
0.31278005460029823, 0.7324276818075112, 0.04540089668676017 
0.6442632254388192, 0.19436716912862295, 0.3783110276328029 
0.4113570288621412, 0.23057255152022837, 0.6214035846832857 
0.39683876571003995, 0.5630600434712002, 0.7688220872073781 
0.053958764017389416, 0.7693053860263487, 0.6864324601020073 
0.3517650345616473, 0.16648713469960075, 0.34098321471949 
0.6919116101755537, 0.8317580789713807, 0.5368723610910582 
0.6433383232962934, 0.7701316686522903, 0.12292156336004456 
0.19632311303334793, 0.1458366731271169, 0.7216550101322303 
0.31373661419559307, 0.32844053951665153, 0.7797546592481156 
0.5148674157153357, 0.969818072308105, 0.9742521407649896 
0.8898377300765001, 0.967678505738975, 0.8770434011024982 
0.4822846695558768, 0.8424862096646984, 0.6562259150984733 
0.516157796189611, 0.23066651180955344, 0.8753958030915877 
0.3605422562478111, 0.09649119328612077, 0.40768982840193435 
0.4332022104594857, 0.5637987435750041, 0.9867044849675354 
0.23343026786478271, 0.7002584624162483, 0.9687150483796836 
0.31122719319811065, 0.7550300177590562, 0.6347021760161656 
0.8771193826549264, 0.35388442079529236, 0.7857519468518345 
0.17584441092879655, 0.3469265420466757, 0.71971140224941 
0.015015825722946352, 0.6804514789239273, 0.6019946719356174 
0.018276529002465458, 0.15035105640393132, 0.20152186518574045 
0.2254610338766374, 0.5132075777329986, 0.9878168538854465 
0.2299330452860111, 0.8293213444704859, 0.037996234608395074 
0.25056968888043585, 0.7745813913523034, 0.32298444391791636 
0.9702030649019222, 0.43292770096436384, 0.2939150424463738 
0.8834857049279468, 0.7805090567690892, 0.6810363525121668 
0.2620652032524675, 0.33394440943553205, 0.25779327864253854 
0.5349752907061668, 0.18107307168267384, 0.2959449927545226 
0.17014162548450218, 0.28822951720955725, 0.3558891967278851 
0.21573462590581616, 0.154244968646867, 0.06529348910630872 
0.12235541376429748, 0.7942602737622686, 0.9905182333503527 
0.04576546161432027, 0.74214001453218, 0.16002508301734442 
0.6865583675747706, 0.5403815166727639, 0.5711388003202624 
0.0644180832109763, 0.8424641182207743, 0.9593422853292368 
0.45386718901386225, 0.09068691254395989, 0.18297556766536927 
0.40938237717812986, 0.9266764949159825, 0.9216084857043043 
0.6573002319329871, 0.011838816037843758, 0.04325055989143445 
0.624949308825709, 0.8234243727187625, 0.39425195196043605 
0.32881743007985575, 0.0325439192429996, 0.4724964328916099 
0.050848221178348973, 0.29655497762942706, 0.47805328408980896 
0.47604054999156586, 0.07734735759694311, 0.06476067156045962 
0.49730536624419885, 0.23050049815820517, 0.1065853352687749 
0.03922791479968413, 0.12769116482190346, 0.9479484340387103 
0.021680727603800687, 0.556360462301256, 0.9618593033054262 
0.9083998233987473, 0.5309942182302936, 0.19511903994578772 
0.29232174299070757, 0.6081832616260544, 0.7437254863343996 
0.2592225853939458, 0.3785398129295612, 0.34542239345977377 
0.44374165919876296, 0.6107686010140754, 0.8849370123880222 
0.5143094910072468, 0.40066450931755204, 0.6452018910902138 
0.9699321883608928, 0.4143836069040424, 0.4402699234502109 
0.08193356077879799, 0.37774531945796797, 0.49493720589497936 
0.39861867769515213, 0.8053044599330847, 0.12556618365565952 
0.914928070760092, 0.3901325614887027, 0.3457579806954506 
0.1553805824888952, 0.7093597660015143, 0.6825857164646016 
0.6979340055517143, 0.054857026370193185, 0.32256091112157925 
0.45341013735232893, 0.6836663738173678, 0.5220692350341799 
0.5436683975077891, 0.5658698330225335, 0.5772195697302032 
0.8399928003526088, 0.6892524579060453, 0.2295723041518003 
0.21675924871872743, 0.22992283069020047, 0.9810172722671374 
0.7938073908156794, 0.1090962439573483, 0.11201420259811568 
0.8937497252422759, 0.5397586423665452, 0.684887101466618 
0.7693902861209639, 0.19799163342753823, 0.05237002174112215 
0.7976133590018618, 0.43168439066740494, 0.2286856685626909 
0.7247074223339041, 0.4468668636832208, 0.8745112974536372 
0.06584389762714749, 0.17747936890822913, 0.7504697965346453 
0.43793032753967276, 0.797436553992362, 0.05664785502612457 
0.9622671169780548, 0.7221610500238339, 0.1410681420648363 
0.16812719618833194, 0.34251960115548263, 0.8058502389182852 
0.8102732108491574, 0.1862756378016066, 0.6367356707731227 
0.7450506681624857, 0.1624729692835215, 0.4591428233634821 
0.016574237459151542, 0.8383140732067716, 0.895446103363781 
0.11656204504020129, 0.34361378897026484, 0.48446349172770065 
0.012677303853568689, 0.8815980368067684, 0.053427601520848134 
0.17866940564673295, 0.6364473323118969, 0.8261566105203674 
0.7710756590319318, 0.2610180534435408, 0.2599606821876097 
0.9296565142661519, 0.0857890356488944, 0.38834042826330417 
0.20843163203500714, 0.36452760220562985, 0.9493669513470814 
0.9388998726519832, 0.3704555766087212, 0.4501162905286984 
0.5738527416883792, 0.709659851262474, 0.5632254365561448 
0.9327057085180125, 0.06608398805409244, 0.21440037320147942 
0.6845315058460332, 0.4419097411901718, 0.21851123567154862 
0.5408202149708965, 0.5437093046045411, 0.6404111632423877 
0.08943559793562084, 0.7547146305352777, 0.3945812830640738 
0.22830023488558548, 0.5319006904977018, 0.2067081799559778 
0.504413299135077, 0.9556520438095549, 0.3682806743595458 
0.3620880067453556, 0.8068491964244418, 0.34743703637188517 
0.10588598013083828, 0.04050301858060068, 0.5212516768245196 
0.19009573064288088, 0.047839426831322474, 0.5061262276691945 
0.501530862273472, 0.4265320557294159, 0.3612764329857552 
0.7427090623894353, 0.3010767607031811, 0.22931802764110576 
0.6625089879709792, 0.5892693890393838, 0.842466291015442 
0.8756755745504445, 0.984636145591952, 0.6370103416881084 
0.3354701182701353, 0.22275140179672137, 0.10530420589299871 
0.03465877903812298, 0.14441507141583088, 0.7790610230564499 
0.8327759178332422, 0.22951629065010581, 0.2925543882233619 
0.47959143184863395, 0.013368905867473302, 0.583007228533337 
0.3334532459819509, 0.15034749228340416, 0.20896563010121383 
0.6790472337742955, 0.40428630655349407, 0.9253338383995906 
0.12615519959516475, 0.6240693779951698, 0.854014762101628 
0.9707563870059475, 0.5414594775393298, 0.404685758880019 
0.461851966617962, 0.7531778192091735, 0.1632062914488649 
0.7615120625072118, 0.7168542901400671, 0.09188470251207337 
0.9389588301583824, 0.4713825931691432, 0.7913160556997599 
0.3811576741297005, 0.1244386610595497, 0.0759766654415559 
0.831973196917856, 0.2703220479878585, 0.8547352032879396 
0.8959661017092552, 0.34495613809517045, 0.3098250826674914 
0.19014842514275043, 0.589167960129031, 0.17084299547294657 
0.7931158864323463, 0.1225973247741633, 0.1176059835686426 
0.15948273342613972, 0.5555944328038334, 0.4262674493996511 
0.8433524735630199, 0.8662462791569853, 0.5235439271855685 
0.5081478666446899, 0.6714862066989552, 0.2529002229681738 
0.22249732797345478, 0.6619301691687839, 0.48949550570690925 
0.5989005694431488, 0.6823724776521282, 0.5865115670329135 
0.3030150569236695, 0.17706898883158728, 0.4547246627372905 
0.6661307526972449, 0.5467374490863881, 0.15602561477172083 
0.6478894023448849, 0.2731230341250037, 0.3484351953663738 
0.40823206180417604, 0.2531857063816655, 0.9040966109597349 
0.09912871294356052, 0.7928679097243536, 0.5496417764296226 
0.6351674306441485, 0.014995929707150468, 0.8122289786697342 
0.576385282277337, 0.8969996293127579, 0.703605361532253 
0.9865293505659443, 0.9649515535292154, 0.16394280804012762 
0.9533208372982738, 0.8735007656328572, 0.8184553551649039 
0.2050558548052983, 0.009529787841340287, 0.6415237082045943 
0.6900481075832947, 0.19919221255639696, 0.6413495427398461 
0.9901106590770844, 0.7159606003192873, 0.6673433111606266 
0.4509132505503163, 0.5554766910610317, 0.4408171534920662 
0.7857484739535036, 0.3694722673886993, 0.49382181875434383 
0.07733749066278439, 0.657594948875311, 0.021752221929272175 
0.18413495752490205, 0.3674926503189423, 0.25382688918710783 
0.5124310051059716, 0.5947279220681668, 0.8626828643029941 
0.745239663126915, 0.7375215173027341, 0.7089016427555065 
0.4126695711114027, 0.9781120142505962, 0.8414349601804076 
0.09637627357253165, 0.08905107349327779, 0.8564158824004893 
0.07994391282582858, 0.22177727703998595, 0.5488950488937101 
0.5793339632731723, 0.9665548662619436, 0.1851697005881584 
0.5534096265545346, 0.22428000461578412, 0.6190617196121044 
0.9376442981164912, 0.4328028623082235, 0.7058652467032493 
0.28962450337344714, 0.49872377920728517, 0.9382361276655549 
0.7596471302408736, 0.40358843143271406, 0.5713457792282778 
0.10751132388684104, 0.17099208165103863, 0.14797970978184216 
0.4169224872277285, 0.08532918021999936, 0.10379309920289614 
0.8680637680043721, 0.8756123956536273, 0.21490416193959816 
0.2221537701096432, 0.58193821000146, 0.39407852010922106 
0.5618414958272818, 0.3466330366693343, 0.3868981163875612 
0.7159942109384156, 0.9338801404039435, 0.9268112298662946 
0.9721516070342733, 0.5455208163211243, 0.1082301564101924 
0.20142069268884255, 0.8514245640443577, 0.8699644850572585 
0.46571627663225545, 0.6411486086333537, 0.4444346585868778 
0.5236940600835542, 0.44443444613267724, 0.9923240540917 
0.32663260153948215, 0.08201683848858166, 0.512128193376256 
0.252783793424428, 0.41327250508679036, 0.8325835873747882 
0.5210723977607655, 0.5008327682812691, 0.5863892695515316 
0.07126491558289427, 0.1758798222812794, 0.3210267731729002 
0.3327623459486704, 0.4145806399595361, 0.27209554941033975 
0.3938652626926703, 0.29791708359929336, 0.012204585563010628 
0.37583954581006995, 0.32715134891666686, 0.40598675215533686 
0.5156922545174976, 0.7507760928220855, 0.14943937312440791 
