0.4676518425617032, 0.6726956638185959, 0.6218155712245513 
0.9255223910748828, 0.8382885984706029, 0.16086110200441284 
0.5713307614252829, 0.42863367205995384, 0.11889331241763057 
0.9141529303657706, 0.4276514299694526, 0.09515331593105858 
0.5818117008774811, 0.1846890427347332, 0.39826534904108035 
0.553517116016598, 0.48384564590745205, 0.6041375533867578 
0.20971364663998682, 0.9124705244630177, 0.02981497971423286 
0.595064922013098, 0.1966971925566463, 0.4808363851438353 
0.4517366638500633, 0.47998841972295725, 0.9295468316602141 
0.4167335014411957, 0.8452179603100455, 0.34451456454078255 
0.6361923124703339, 0.37062372037908764, 0.41425598948198106 
0.168924749043475, 0.593200473429436, 0.25480358879611975 
0.5474008979101198, 0.8904927115226732, 0.40068818362561964 
0.6747561236538451, 0.9717620352675589, 0.08671928318782252 
0.4273786296784673, 0.7486351199863722, 0.4130014093498442 
0.9934518841229376, 0.6359410468898153, 0.11819057694982238 
0.35505044055822965, 0.42874287960208546, 0.8612333867325886 
0.889589860424842, 0.6765405104874086, 0.25075083155979094 
0.23934887516409453, 0.7589321415947328, 0.8632269832767261 
0.5714771954405056, 0.017014702292668882, 0.38195097178870574 
0.7315573546131289, 0.3307223413998629, 0.803877191267392 
0.6551896769294501, 0.1430882606702083, 0.7328734569026083 
0.34129556816522943, 0.7565097070518205, 0.16492800336749003 
0.1372057934077282, 0.5299559377661676, 0.7966563689782458 
0.12156251157062059, 0.4955883763669999, 0.34722734117078635 
0.20996877687590365, 0.17432644504142591, 0.9294716133017165 
0.37350887932285326, 0.5396001652725341, 0.12400595809411286 
0.3668786848340643, 0.8668189799372041, 0.4736894170379957 
0.5013962806426953, 0.2625504364115504, 0.06567762278514677 
0.8821374962926072, 0.3010825623761453, 0.4568437496160024 
0.43612674843903276, 0.5229072650067073, 0.5170681853269262 
0.4584262871077137, 0.4235808251034303, 0.4495422822443724 
0.35585606323798225, 0.636890884587785, 0.8179058097801639 
0.8277030972274309, 0.7417950302909498, 0.41077252929301056 
0.9667699649810694, 0.25188076854780217, 0.3213957027599398 
0.5644875811215645, 0.017590891185574553, 0.4087111384501726 
0.6405099055585158, 0.9428895641501526, 0.3558641592280263 
0.3836276875616289, 0.6343046837528477, 0.7438979840419045 
0.08138067276140315, 0.5432627585489052, 0.4444440437095114 
0.34060159363587217, 0.7659699558143734, 0.7700627024065152 
0.5724035976901427, 0.458547137603183, 0.19444681263260166 
0.9923348182482818, 0.1475413218744952, 0.6679462584568717 
0.22156628099322428, 0.6396290098237551, 0.4855241717406147 
0.1407306157451783, 0.6528982576228228, 0.2630243946131906 
0.261956226985107, 0.00039458465950670263, 0.15313797383865424 
0.37700715437000143, 0.6643660987537936, 0.27175762197892805 
0.9741836611582173, 0.3943306002713056, 0.43883599512687754 
0.11255837496806675, 0.34812333397743966, 0.6888108015565113 
0.6870746397628925, 0.6165486352757136, 0.6284776188883587 
0.4167760334161661, 0.7637144788267132, 0.2715491852636085 
0.4360191854122546, 0.9403693220027617, 0.799548742520403 
0.3465889647633196, 0.6477308968770416, 0.03861226952503982 
0.5501997525266136, 0.5259986554891003, 0.7395096046072659 
0.9174970565138816, 0.7723900394394326, 0.9467920432749539 
0.8055638868196134, 0.12653147305504098, 0.3998105431494927 
0.16571493805799253, 0.5754964967770152, 0.06812972927012606 
0.9614317680365276, 0.3078521533729912, 0.07730109625945414 
0.6654163907933588, 0.7824521153619768, 0.6068560321275459 
0.5511879590060557, 0.02948576441659645, 0.25909655688898636 
0.986263095115443, 0.7051086531194914, 0.2793296325881316 
0.14402856592567714, 0.6353578863163426, 0.3828665074766071 
0.3540698940530572, 0.43227941685210913, 0.24457044604915346 
0.05239532749510778, 0.3926904692972203, 0.8304851234131652 
0.8777841849874483, 0.10366871911287112, 0.22775126604566265 
0.43193555055275157, 0.09243736069153896, 0.008159667843548157 
0.9243182856610398, 0.6211639592719397, 0.2508927955534719 
0.6761740760823843, 0.17110427140351325, 0.1467775826293658 
0.43571463985968706, 0.9653403208952014, 0.43136302143249616 
0.045245788393546316, 0.19739754242146856, 0.4788985994451668 
0.8542714679225367, 0.38519430383749376, 0.7553774410509592 
0.7409220710207465, 0.6459833706489629, 0.49664678163125076 
0.07114709851018752, 0.060015240856932106, 0.19911117416764723 
0.9068599613208759, 0.06245811520811162, 0.03292335999130891 
0.509394527635416, 0.01528540348102525, 0.8685967486077517 
0.580191519771451, 0.2084236454423789, 0.19135105353148818 
0.0607760226687003, 0.6169830790141738, 0.12726040222995094 
0.5682143576004567, 0.0021638593450469257, 0.30094517120730546 
0.1605954127610546, 0.3372572847249129, 0.7315297669265372 
0.47878169324750963, 0.6563446123752288, 0.38024008650957497 
0.5236247131268237, 0.852540605158472, 0.736641313224939 
0.6775568319936996, 0.19569177759904732, 0.8946837223629535 
0.4041058470222062, 0.6164663938898791, 0.0014486246993548058 
0.47071806070524314, 0.12039114732724088, 0.37073750276546513 
0.8735416856470121, 0.6835078603024525, 0.9646456575874334 
0.6043900281694903, 0.10052040798839457, 0.21897678215041783 
0.6563813113039307, 0.6599427928257995, 0.0550244936212646 
0.4775322375474379, 0.38722435155652013, 0.28653414549463607 
0.43469112264500254, 0.7543421584688569, 0.6659486764609764 
0.5759553767851432, 0.7130689777684263, 0.45219953570678895 
0.49076591925929036, 0.13618524665336362, 0.9380664453915821 
0.7444787232125192, 0.09823486560695849, 0.035128916237822994 
0.5305404988364033, 0.692564012440418, 0.8693557048952272 
0.30377066369649786, 0.9291583389942792, 0.2643427973654946 
0.42696546184644213, 0.42309450576602736, 0.13352652864672798 
0.7780484495364667, 0.6054488385092784, 0.5648940024074093 
0.9276145486832535, 0.02827432576747535, 0.7379851230783568 
0.44616000193439165, 0.9239991241233931, 0.012971913110251365 
0.06521764415551101, 0.29778657813847487, 0.005241315814955683 
0.40584303064514315, 0.37963023083692204, 0.3333003817532839 
0.5296833611397754, 0.9747913050528227, 0.3406091424001788 
0.4336827885200555, 0.9424568600485895, 0.1366005846668895 
0.636460442146748, 0.502928913835232, 0.39438366203838426 
0.035079276049867714, 0.6779730815335817, 0.02632451056463092 
0.4128428179329444, 0.41374445049965225, 0.060917772951566196 
0.5100161232594247, 0.2552684075832512, 0.8966433594293289 
0.13709877997180386, 0.7338544925121929, 0.9221829198024595 
0.5413325669373108, 0.9119299752814367, 0.3195753615916408 
0.8583998594928982, 0.3694491196813289, 0.2895284883299387 
0.1006637863256119, 0.734472937767658, 0.324259527810172 
0.7319984563436651, 0.3574002892268362, 0.6591783191406435 
0.10696784828484707, 0.24429040106483668, 0.9846459499870643 
0.7691489292664463, 0.041916824652366014, 0.07545416439138475 
0.8730449834236691, 0.12370901665644063, 0.24709127783934026 
0.4383413152417659, 0.9194007244325062, 0.2952716821127308 
0.6453437747850059, 0.8649004930640501, 0.32829302522658843 
0.19701278072648287, 0.22956288131808633, 0.8279371452981126 
0.7023037981099707, 0.8566666011482875, 0.3637889290830687 
0.46206438407727923, 0.34358496189651977, 0.666490021004397 
0.1665432450907527, 0.27811989947683835, 0.4216028507725339 
0.876687319520534, 0.9297914693191519, 0.8679796257717051 
0.06746235613797824, 0.41021021988954576, 0.3869118287219805 
0.2689648644666107, 0.2900566068358945, 0.7742204526883157 
0.6464765209668571, 0.6204085610178484, 0.4487463659688252 
0.45945933993866006, 0.02474634816910548, 0.0771411263496834 
0.7737287124161343, 0.5776176372626365, 0.7708983204916918 
0.5963287262115488, 0.08783069871420002, 0.18435721054020038 
0.8930171807166832, 0.48244799986992415, 0.90977753366272 
0.24802880734596477, 0.29264345463803776, 0.44033022350570705 
0.5651929808189314, 0.6460671399372357, 0.42795886345265177 
0.5558238662924749, 0.9980617876011032, 0.22493187953557658 
0.3552466097713717, 0.21671757261583413, 0.8156854824392246 
0.01402193150843456, 0.736188830633213, 0.8309257267273618 
0.6104970019552738, 0.3149540960693644, 0.4421393365891655 
0.3069948879058232, 0.6754811352864002, 0.35676582108769916 
0.24002973877738842, 0.08140133927768445, 0.11594917387141279 
0.983409290938525, 0.285835924144927, 0.44555741137754057 
0.2693603768821645, 0.4146078101077587, 0.6723103918034236 
0.25097437155316815, 0.5939215413286146, 0.2622414833140614 
0.7341690691022812, 0.08664793474693866, 0.7233059290878254 
0.5966703814777649, 0.3074415053838834, 0.7015003384071088 
0.7395794034546604, 0.7747325231357169, 0.7004350705532834 
0.26013851940480137, 0.8507760622842938, 0.013667650925285213 
0.8190135577622407, 0.0036531590975164008, 0.2974484065544676 
0.5139111511271759, 0.8242237142693247, 0.7804617211667507 
0.8930354401749135, 0.6856812537006438, 0.8371731758958397 
0.2663521007573385, 0.33760630503186306, 0.3540957414278505 
0.09787584689409445, 0.016354387860011643, 0.6410393615576794 
0.2819652840198328, 0.9062508057410785, 0.8869297511886398 
0.03310764708090852, 0.19308280041235992, 0.4228397144339452 
0.535496241771933, 0.8928668123400785, 0.6956407202872543 
0.07514140573958761, 0.6570383264731013, 0.7070182299249724 
0.55587762976002, 0.9370404825651278, 0.5661230839997199 
0.04436872426549976, 0.3788701750454265, 0.1529964185993753 
0.7026380078950717, 0.3938897607627607, 0.5130844834141188 
0.4563881069577582, 0.8855713409510604, 0.5434179594563483 
0.44749547654522803, 0.8884225830032428, 0.6205945272356523 
0.9519405509455319, 0.7410115130381878, 0.6023574514097192 
0.3357298685069938, 0.3924254521760312, 0.31097501884456724 
0.34638043141898245, 0.29552132955900134, 0.6296592750663029 
0.5546386477706903, 0.6907973184534811, 0.8588056846791414 
0.5292953288769712, 0.8545456721035697, 0.24456452166558584 
0.7220861776602003, 0.25650808648570855, 0.9183885624078691 
0.4115414689203466, 0.8627854851053282, 0.20638423812491513 
0.5484126256606829, 0.2653281636155598, 0.6884379140662829 
0.1851025378516713, 0.09521491107851177, 0.8838166746675442 
0.04171622935673003, 0.8307424201802264, 0.7559224984802956 
0.1521906013912665, 0.43301447162949536, 0.29799075575173184 
0.05351095204877154, 0.12609525769116792, 0.43207822322679645 
0.9076332808485605, 0.5822848619973694, 0.41334674385645753 
0.676096381614063, 0.9168495137182461, 0.858652914177108 
0.7255689928255401, 0.21480750593578335, 0.3970867975711133 
0.2681829092457545, 0.15633688896373377, 0.04730061159500476 
0.4303909953244248, 0.5384821153650249, 0.2634246635100591 
0.49042691542279526, 0.7080235214813063, 0.6996871061231393 
0.07493354871832425, 0.3206447164743723, 0.017833770548737027 
0.5325173356662745, 0.9449711673881459, 0.86379860009251 
0.8792044317143648, 0.4657145657177215, 0.1937727507332242 
0.8417935494118683, 0.7946304104635399, 0.8091394829858608 
0.6593479447052362, 0.7177743193756122, 0.6952584595261871 
0.10473430668519612, 0.3392797172023263, 0.37460046589053 
0.6073697347652732, 0.5108975975626457, 0.9933202772963641 
0.7595806750572291, 0.8352444375578074, 0.2293944568740367 
0.8904400945343072, 0.3877130049002536, 0.9622069022442739 
0.8291792389720887, 0.12531315609030025, 0.7776492463014477 
0.46590799293210705, 0.9925200971751602, 0.007376454107804631 
0.6182507786548614, 0.19273688139785905, 0.9437111838903992 
0.5114138968347408, 0.7536955013078349, 0.30500267088105726 
0.7360682704614869, 0.6510756260292507, 0.8659046800183744 
0.6274756636825577, 0.7714525282762716, 0.16801587093969428 
0.3967602328839509, 0.8967668682502593, 0.5736267608236904 
0.5794978136529888, 0.544553204587899, 0.675517393862421 
0.3076782705743317, 0.10812336030602221, 0.45821032361974745 
0.3090744370607119, 0.33306742272762446, 0.8798199970571295 
0.9427281908209177, 0.8715305401214465, 0.34583363242108034 
0.2976325297465262, 0.43570607034343645, 0.22119986719690632 
0.3229208963717729, 0.09069135362762704, 0.5741968612474212 
0.5922867346774335, 0.09595062012218614, 0.021838458030629337 
0.12561046834754608, 0.5223982753543143, 0.4019009361276745 
0.8194882695685981, 0.274138821668932, 0.7872285692368811 
0.6504370650428041, 0.04501004675500342, 0.05120455155488257 
0.5312399348587489, 0.20685747733450732, 0.5173111227868386 
0.4548395183411056, 0.8161293630230654, 0.8656096746028483 
0.8766895286446125, 0.2879810039572511, 0.9422585579407922 
0.31954876168556623, 0.6898176335422355, 0.25606694423548093 
0.6327824321657914, 0.9330898727111289, 0.07039429733194158 
0.29404700870913025, 0.6482870484941671, 0.7820098664202659 
0.2422577743289933, 0.3179648561710261, 0.7848764039475573 
0.10218125063183636, 0.3299436654005792, 0.03406130020382048 
0.40314033991584985, 0.2065208927073472, 0.7024278746764291 
0.7697798777153286, 0.5189916484404623, 0.0640697829944632 
0.01668287716713157, 0.9653097623048362, 0.0488265722449539 
0.22537512579756025, 0.46816938574605693, 0.69903213705512 
0.8898845883092195, 0.07154222590285542, 0.11980974113532628 
0.3508355436243189, 0.46260409058010465, 0.052815587992168345 
0.396829657929586, 0.26834536862941694, 0.8671828574298956 
0.391418642106259, 0.8907603439773266, 0.0028568434484347316 
0.2017180195403806, 0.06771364531890556, 0.8829928528468441 
0.3437653937019356, 0.5963069284061249, 0.962697536525661 
0.3434208414902651, 0.6844713024161297, 0.8635196219411452 
0.3705413303165508, 0.15671311258014364, 0.6357101918265697 
0.8210223589144913, 0.6945742066624685, 0.1760217164855058 
0.6728738364331742, 0.10458876612052481, 0.448414979790832 
0.6517152284339705, 0.06596814436128795, 0.2346462339039337 
0.9536758950733905, 0.28609529853329607, 0.9906718845653206 
0.7551378322625031, 0.8986041208643631, 0.14693374370852308 
0.9649734831609221, 0.7984783654313369, 0.6765249826890748 
0.3662049422038043, 0.6821630673125257, 0.16601622714144726 
0.6263535528510285, 0.15028691974460284, 0.09637443895511044 
0.4210876781776197, 0.7609727627744182, 0.8416013861668972 
0.8695915518841901, 0.7253446340929731, 0.02717652362328138 
0.0014350373999262311, 0.4250366296131103, 0.5638170369152676 
0.5011745615596395, 0.5773272351875979, 0.6607984863520213 
0.8727192004659932, 0.6421610220733813, 0.8869169895317395 
0.6422338539392047, 0.6852615074912144, 0.9608805681775983 
0.2878011963628865, 0.29456729321772057, 0.8137204163814007 
0.1660810007126341, 0.7504100365988815, 0.8759320816837314 
0.773210634300343, 0.5109664358410183, 0.5078089874661602 
0.1238699363539908, 0.3392263879001449, 0.7132716848142615 
0.6614310721133586, 0.1965588873304407, 0.48966459909807347 
0.5102197144008065, 0.2323664217215865, 0.9501926674248743 
0.3710841664879896, 0.9775016427881682, 0.5907452163865349 
0.6401337904589972, 0.1818483707512245, 0.7479990151697623 
0.9143247812059353, 0.1366221255894422, 0.7597671063597919 
0.8144882711539317, 0.9533924763824309, 0.4917274826187664 
0.9710696233804844, 0.3440269244324148, 0.5935547776198941 
0.14237789846645643, 0.048004235447209775, 0.5132975638132354 
0.9117392357824613, 0.2355412154623996, 0.16159221665468515 
0.8057461343829361, 0.5128357138465423, 0.02330193893385102 
0.8022830666861256, 0.07700797023497818, 0.6964312948597638 
0.02967780582407087, 0.7168656747575252, 0.5552918313352779 
0.06461193038282176, 0.6417190779925149, 0.3488160731787876 
0.05630239826874328, 0.460914237221543, 0.07267533785582758 
0.7491341555580888, 0.3336006078221988, 0.6945529948917686 
0.5104258970085808, 0.2975161434309237, 0.8896907621210002 
0.5313402266560592, 0.8237506730394705, 0.5262000043646793 
0.785230344172329, 0.187536422804509, 0.5759709224920656 
0.08654837975514584, 0.9678810603130826, 0.04532066022220582 
0.10907817812100429, 0.5026199202264636, 0.6374173168604325 
0.22094254955783288, 0.7260775889292912, 0.8366449330852563 
0.780983141377063, 0.09783865102841283, 0.05694629867875678 
0.32483683108960026, 0.23119400220394004, 0.5403016568664781 
0.16759737217389226, 0.4178936818612444, 0.27062558465182807 
0.7608023615100664, 0.03424199922137017, 0.2778670891137136 
0.9832574264052744, 0.2856594061453417, 0.6090761768514542 
0.5317637390419971, 0.6936553164246144, 0.9172823777900435 
0.5803904516413839, 0.3117630040196975, 0.37917588344873854 
0.6636739737548726, 0.30199142995961736, 0.9094333636329414 
0.19946119072526458, 0.5614299998354924, 0.5538546484736298 
0.5391378043023836, 0.7426189271124052, 0.32989626596373933 
0.08785911047487194, 0.6766315671743831, 0.9975276468228333 
0.4782826836510924, 0.60272752967757, 0.5824556887072967 
0.4112139542846809, 0.8262738216971163, 0.03009362792435577 
0.11019692390949909, 0.41262549754220956, 0.02811199088988403 
0.5710954056440144, 0.7008550421336673, 0.9423034206448683 
0.6603557484430176, 0.21489695720265733, 0.6721145434026604 
0.18855956158336595, 0.25613485722093066, 0.10176692328308246 
0.6416594396856008, 0.6889275141208546, 0.4937231940701817 
0.2001110158453151, 0.8940980063642723, 0.5527821636623031 
0.16026364524463332, 0.5893947614326188, 0.8141546775577323 
0.19761457744900868, 0.11789950837464613, 0.2706109829110642 
0.8799131727056178, 0.6786514947187793, 0.3677530267496002 
0.718174238156253, 0.9038206265700172, 0.8589049341341557 
0.4574842936685106, 0.6520333395849793, 0.2934659700774931 
0.6755315240891837, 0.40177854311265715, 0.5958537275301435 
0.678844680406415, 0.256790510062347, 0.48074497021139284 
0.9738489879924878, 0.7782997021327083, 0.4882896516331964 
0.4523869546623571, 0.9981006815732836, 0.6785322219332395 
0.11195951411601957, 0.45807374989198846, 0.15168506216123068 
0.8194662038176619, 0.5250671536965968, 0.5124850066545475 
0.5864599647566208, 0.04352438359153876, 0.9247502062362192 
0.20632432861762562, 0.454305651777723, 0.8620178702908032 
0.11001197218129599, 0.07677338421123958, 0.689993349463988 
0.27578737331370295, 0.1922079520351535, 0.17381521066514205 
0.37088991485368417, 0.1991337619372573, 0.4703648593642712 
0.339796656498606, 0.19124892383154146, 0.9233742336018769 
0.25164411264612263, 0.08790055303523914, 0.11130601957607134 
0.6459181901795457, 0.5656685531315926, 0.8679252607741007 
0.7071783545409216, 0.75576736522657, 0.25835300228396507 
0.8819466528796935, 0.7046575987484658, 0.20464781290542744 
0.26068055139907265, 0.09466666833841597, 0.04315003913151205 
0.8426130020558196, 0.9040672905176388, 0.3442847379662415 
0.38834155611854704, 0.837227138209112, 0.09711532383871879 
0.9245126897828712, 0.10457584944635478, 0.3863914841997761 
0.5337750320504702, 0.6790147927756099, 0.6181206869570303 
0.7964864704742212, 0.7645517282017243, 0.6284840967228327 
0.7900211978808154, 0.7576293923699086, 0.3898323672010753 
0.5698483426964837, 0.47811884740319166, 0.8100156529496801 
0.2876231963778978, 0.5323618062802943, 0.8307942193169762 
0.6089598617962116, 0.24618613403280243, 0.485508935800239 
0.8884986713333488, 0.01628343550770084, 0.21667816356632885 
0.14914263381885184, 0.7769266224204853, 0.3428206121555817 
0.34403429254042495, 0.37172295897100305, 0.33964619021678544 
0.548113197589814, 0.572372500962686, 0.9545395191455869 
0.9415797745212837, 0.37712516590476886, 0.4325950333200145 
0.34553484643677757, 0.05072064380745234, 0.7772879400047434 
0.6299536484939435, 0.024270233346033065, 0.1067852863533395 
0.04509627041531383, 0.10552608785186324, 0.413883150738647 
0.050887759274093614, 0.9050924281030757, 0.878059202320965 
0.5302944834732375, 0.6114463467929808, 0.11808546648799734 
0.06277305832897628, 0.7360763984767327, 0.4477556423507526 
0.982320252432859, 0.294361231594946, 0.21841343331949947 
0.17907204554418854, 0.21739502774152775, 0.2092187369389531 
0.30047875061048146, 0.017212674615498358, 0.255986043239537 
0.588307524428167, 0.2142130493326878, 0.13450775974633022 
0.15455099856987797, 0.5176707316167105, 0.7229027701463151 
0.08120185393701385, 0.0398090040014738, 0.664079700644402 
0.13777354314983992, 0.7124132214363115, 0.5113313369929815 
0.02451132087018293, 0.0881494099395036, 0.3522257402403227 
0.7960664532169879, 0.7522135367082369, 0.33568702273245365 
0.6286963892054378, 0.9375155304804934, 0.2706315343005876 
0.19784163836499213, 0.36031987586702763, 0.01660791992958266 
0.36952658412719774, 0.8410787903255736, 0.7435796565771642 
0.7854788837634891, 0.7850072377894713, 0.6041190830798706 
0.1466223612798061, 0.005282826405437091, 0.5365747310533507 
0.29079701521995405, 0.7901470334794974, 0.3874936033745029 
0.18613568346047937, 0.057171210909960246, 0.4483418839301554 
0.8867689358933456, 0.6264585550980907, 0.781742418456806 
0.9505814458802866, 0.5597206424290979, 0.2119376960491841 
0.25453154184040083, 0.22740130557162685, 0.599517778048216 
0.7352252563414765, 0.09677720881125573, 0.23791090816443972 
0.9249549831281586, 0.39545259644331954, 0.19170138942170156 
0.369476115876479, 0.5033352485309602, 0.8539909873022611 
0.9165579791847838, 0.1276563146202011, 0.08723870890163377 
0.3896966758194965, 0.5324969408524425, 0.20441318792703045 
0.20504452004377915, 0.9173663124208661, 0.36979072472293917 
0.33616030770701655, 0.11272829499140424, 0.13855394567117496 
0.6337575688456635, 0.3031276008294621, 0.7708770495323517 
0.7376706011413231, 0.2851417800173286, 0.8865377719067992 
0.8217662712234256, 0.9980063878442431, 0.6133169031075397 
0.12183498009470994, 0.6784496999678934, 0.44814023461560826 
0.09330271448563987, 0.8745893950111662, 0.2614328229299646 
0.32611876079185664, 0.028735761396645465, 0.060128306142400945 
0.5446798194938974, 0.6370952721663367, 0.04605868759828968 
0.6111076222493329, 0.19365732952339032, 0.934785890728397 
0.8641356525004968, 0.6735784899322237, 0.4370380745664043 
0.27949746841169143, 0.6268198234736775, 0.09940602152903177 
0.229637391561345, 0.3829695253132821, 0.5871823759767956 
0.4733010034352677, 0.6308711555644321, 0.5150838146056359 
0.8486991868308006, 0.9592267579290278, 0.1477071215614676 
0.6421729059841851, 0.0682589224773007, 0.0212916968128275 
0.6289768193985905, 0.025179775447813024, 0.7749694450082925 
0.7765437246719554, 0.39338191829007096, 0.5346789093529617 
0.3315894543130735, 0.504574767510512, 0.8495417055614458 
0.6076599180015798, 0.6143826085154004, 0.8386361888765382 
0.10205986164613434, 0.12264678221609926, 0.37597702281871126 
0.4149720709153457, 0.7299141935470402, 0.7393076217858475 
0.4363585764925182, 0.18552158103123395, 0.39792656823289796 
0.7796419799808739, 0.6082154828803605, 0.2523605326936177 
0.9258884171201813, 0.23146988206097163, 0.9883824058170689 
0.251390147783485, 0.8258327951369364, 0.4101375712838288 
0.2606324491064971, 0.036061361718970564, 0.35635380583737375 
0.9969845947293383, 0.563906986351217, 0.7269111118353767 
0.6684333272113919, 0.01102892212513551, 0.39459606292820615 
0.7945864036070355, 0.5525940253796491, 0.28732455582220207 
0.9762305415464186, 0.9362965649763642, 0.1281945230991517 
0.7354250043083083, 0.802546194469451, 0.792402165286172 
0.9137880601632052, 0.10399328486977455, 0.24615799187188536 
0.0971430295908362, 0.47492893283376814, 0.4744496392918135 
0.972522583161291, 0.7122213569459699, 0.27138879884791156 
0.6818698595639896, 0.7830096638434838, 0.6186070997903799 
0.1396353398977943, 0.5171958568400219, 0.9772328327106201 
0.1594552541161275, 0.9491478046763647, 0.9479396368573209 
0.1613734655899154, 0.4256929432736728, 0.8717507347203352 
0.5471479028621351, 0.27198718643492725, 0.2746205053762938 
0.8791334392631549, 0.4089779157395268, 0.7073644463308277 
0.6131726500211088, 0.4191439184749002, 0.23731441850529256 
0.24184862736249357, 0.6651025478416042, 0.2289513959744931 
0.3497982718210717, 0.40030664974453944, 0.6599502742340329 
0.05449554841655391, 0.4114547118459333, 0.01128841139626513 
0.05797146172095524, 0.669037066535176, 0.7282170543681651 
0.47573216655041195, 0.6125832282528596, 0.8632613826008914 
0.3686325430870636, 0.644598384780504, 0.3835238837816486 
0.430568257041267, 0.5617876109314208, 0.6537695603913244 
0.8941110510179465, 0.33540412131897135, 0.22253091562667393 
0.30179629876471314, 0.12438093758274926, 0.17218496425348828 
0.038045803895922936, 0.1781600443516258, 0.04357858361422906 
0.9109972393544804, 0.3502152703632153, 0.9254239116356344 
0.547571885636281, 0.6368595613120419, 0.26797557281690654 
0.2511933850333993, 0.10120266506214692, 0.9067432213184059 
0.45653180758636025, 0.019860395600875602, 0.07118743696205221 
0.779467250616604, 0.7871094892296149, 0.32220530458121033 
0.21392087622539468, 0.6049961373007936, 0.525102893074798 
0.0524752731841549, 0.8201433573263555, 0.526550699174204 
0.38900565046934343, 0.9186053670841666, 0.8604486312763157 
0.939697895959365, 0.6174876101681116, 0.5840140669255046 
0.4358298141779595, 0.8762671386789479, 0.9094914737983947 
0.3583679246861198, 0.7105626418178552, 0.20594166619413434 
0.6623501604344588, 0.5999425826546736, 0.9788316271344536 
0.34176977982007284, 0.7839126108684329, 0.7102881066815533 
0.43316042233907737, 0.44874475353338483, 0.7846889543564668 
0.8410766441567447, 0.6368067050396196, 0.11823996986757102 
0.8160109807698848, 0.7746166126516119, 0.534246193312265 
0.03262037639715498, 0.8544924058561223, 0.9426404033644862 
0.414328353778459, 0.15799527974326721, 0.17735028080761572 
0.5773714639445785, 0.6672754227142141, 0.8194359915832241 
0.29853766715530183, 0.7053269508959646, 0.7351847050413644 
0.44394744193412283, 0.19311319666612814, 0.6954888323257248 
0.343530229153452, 0.061465322273528744, 0.33778682258997916 
0.9107556169482427, 0.09479827297331556, 0.816720539009028 
0.5582924082491811, 0.06849769241825199, 0.2564179239784511 
0.9498434072232286, 0.3462667420471627, 0.9004271264744652 
0.7635222649929503, 0.928260346329999, 0.2662579061223258 
0.49836145591061365, 0.2999978733659622, 0.4008069770064512 
0.9919281276597031, 0.032780627115135186, 0.5005292691540466 
0.018685332802986898, 0.22939742547766573, 0.21398615677310373 
0.0441358861735599, 0.08416807249251401, 0.8916297837548749 
0.5778148973124121, 0.5195365053487538, 0.6822707979935966 
0.7991534884086158, 0.9023674231364907, 0.3021341789227625 
0.3409102114234749, 0.38060298971075157, 0.1996527168969774 
0.22561436627053455, 0.579295800751104, 0.4499773126799379 
0.4457790423231843, 0.562422889056846, 0.6902545196955379 
0.17733175480436947, 0.07848465485776934, 0.13511990913675254 
0.030033009663958943, 0.0763930750178341, 0.7676316009988274 
0.9167866331748221, 0.6625700674598098, 0.30090890218881816 
0.09622246569381221, 0.6604660103321025, 0.8676838925538495 
0.33265898449587494, 0.08532583209092348, 0.7630882677151978 
0.6340534866597893, 0.8776311330704699, 0.9999529118089159 
0.3532938829414549, 0.8057655627268299, 0.5255125565234052 
0.15516563839085074, 0.7018293277445944, 0.24568585891149175 
0.2553390598271458, 0.19011561993076265, 0.2320471348061841 
0.8800400881371963, 0.7810216707301544, 0.48253767964618777 
0.5072249259712663, 0.9059878311404829, 0.27064808699690435 
0.7351244588056982, 0.8860173022199667, 0.26468854994984536 
0.7861092712331318, 0.3489366463897061, 0.4544327112480733 
0.47907131366381916, 0.48897815862718086, 0.9205757156634622 
0.9586937241256995, 0.4184633928227436, 0.07815168146558982 
0.4777015565134657, 0.13761383000322847, 0.8131762591569106 
0.1450853301040319, 0.877810247271666, 0.8292757726314341 
0.2788689958195685, 0.9994215712631427, 0.8253202771218054 
0.5815031047793807, 0.9557314576755791, 0.03806452877969935 
0.5888481204373228, 0.6222372945781565, 0.771794507690666 
0.06627271320878914, 0.07260267011947241, 0.9260948437890798 
0.16892000631667803, 0.8298803853790696, 0.5538567901190488 
0.8227617142806636, 0.720099287534605, 0.6177881501781676 
0.4024865113288394, 0.6368726388095766, 0.5017166970704793 
0.807878171464248, 0.7174764316795829, 0.5367319566217453 
0.6243646346378156, 0.17274908759382468, 0.13240409695766064 
0.36473585370127615, 0.9532218036412089, 0.11337342924749771 
0.059189111207633927, 0.8279703312482334, 0.35187866892664676 
0.19333226997420083, 0.4153622768125438, 0.299049806641119 
0.748879691868558, 0.8651552587260347, 0.8995086141365773 
0.4796529522190358, 0.7328521929897304, 0.30131442729371793 
0.0281296496675022, 0.6285892678983447, 0.1651476283675768 
0.9831672568263128, 0.4119392828625409, 0.27845263859197866 
0.9457382707830767, 0.659435022668657, 0.07037159973077944 
0.015065003803882426, 0.6717763809131507, 0.22696167632486075 
0.9045449250537991, 0.469207997548835, 0.6741555849497102 
0.15707682198370487, 0.6949308698934481, 0.49646536736166424 
0.11836626336705647, 0.13130576821275108, 0.6424791510856492 
0.7095627899364407, 0.6116111029561743, 0.3688568083763224 
0.31100704735289963, 0.3534668650942405, 0.9060758670325246 
0.8248196738141178, 0.05618927071558233, 0.7899850511042338 
0.4494236039211481, 0.9655425541593553, 0.41162941037005807 
0.3174923525339829, 0.2013701844171838, 0.3711409914146748 
0.986458834840576, 0.13158100712108856, 0.31132120418286724 
0.13964444766247097, 0.20293952130876614, 0.6738244272661155 
0.8484209622907243, 0.7935390659385393, 0.6289216310540802 
0.2905209922798544, 0.2181187241647442, 0.36402328821038865 
0.8322849814054941, 0.4232446081337695, 0.1184695441920216 
0.5382282128365015, 0.13416601870986344, 0.03762831587375126 
0.059577149676126595, 0.7651931536482467, 0.03397813954211937 
0.8012446548800763, 0.3871337784322202, 0.6046591811110964 
0.17247515126024993, 0.2841258628977522, 0.6566888119918487 
0.7765887308875066, 0.4110080166180403, 0.8597483246678337 
0.7352427919627936, 0.3902306975550466, 0.8134943880895668 
0.7772622160351738, 0.07597108952901177, 0.12523958496531296 
0.6393115651412318, 0.6651881764374973, 0.8416666243654252 
0.8066235196208039, 0.9051456862780065, 0.21945069693813446 
0.255529737837521, 0.8463550651059472, 0.5061767658422144 
0.32128268786238723, 0.9525168936411456, 0.8673582408888653 
0.42543467029265847, 0.5298764677218587, 0.7338547858952178 
0.4450083697380819, 0.8243741177712091, 0.8984238314815192 
0.1854252137229958, 0.5086114133832044, 0.6786024202927563 
0.9345609317942041, 0.14654990003513624, 0.4522949506306484 
0.5910362234374863, 0.13236995539128016, 0.7492142644782439 
0.5455848923609175, 0.6817869682228342, 0.7850040787476829 
0.21663828672126328, 0.6844237768892824, 0.6158059937983249 
0.36919864963413784, 0.25138741209502247, 0.687920006568089 
0.1638902900465702, 0.20987493886897768, 0.049013123381653534 
0.05181634667908386, 0.46466901814453365, 0.24402802538391544 
0.5068096810388948, 0.5347476715100796, 0.20980939751282723 
0.0421378773641331, 0.5815045442890244, 0.6964921040064826 
0.04062743320780582, 0.3966121999685369, 0.7366355336794738 
0.3365260010198353, 0.30939912742724174, 0.24131914743153682 
0.20916022831754733, 0.34931179868467743, 0.9143275750385081 
0.7524419228148638, 0.039149578273313335, 0.6014614550885645 
0.2978668625975198, 0.2604427081900985, 0.05917669606051967 
0.6208439290896479, 0.24915499640930538, 0.738843516795798 
0.40627738108403544, 0.13838418992340962, 0.5876851567089135 
0.9281083794142624, 0.32647252747021827, 0.2642707564066611 
0.9741103154808715, 0.17751734755939463, 0.4139131577614319 
0.7622090827995746, 0.7709058299653743, 0.07365816572910378 
0.16627472608516136, 0.6241869620405961, 0.8409609716033558 
0.91115231730327, 0.4244927656053826, 0.8866682065180356 
0.0936175598628568, 0.5262217177756022, 0.5751745976640077 
0.8691362428757801, 0.8952851190305193, 0.657706319966001 
0.8389473630268879, 0.5285332549661835, 0.4211865756652552 
0.7511766655619038, 0.7495689779180565, 0.4278434717576024 
0.8672593411161253, 0.6538736008533815, 0.9580473818327487 
0.5714273663291356, 0.8256166595576991, 0.26735177557154477 
0.9427380198335488, 0.6309349190085858, 0.6396090750668046 
0.01475143062062978, 0.5572235169492223, 0.9819435016693145 
0.12466789360631692, 0.7269907957484474, 0.06342528360628286 
0.36624449294647743, 0.07330743086082758, 0.7469041409630851 
0.6155013898706916, 0.27612723996857835, 0.8786786821165902 
0.9642269731108573, 0.12935655500701582, 0.8884971923995577 
0.5115259093041953, 0.029701433702197355, 0.19659564777346594 
0.22156024891075243, 0.7772336037175155, 0.8458479819251944 
0.3904631856839724, 0.12401354547420673, 0.7606690708769979 
0.16066541556918346, 0.06616188823579627, 0.9395170230431613 
0.3380805964476312, 0.0859136858838282, 0.605232541480007 
0.8580692206815665, 0.13430369223437255, 0.1332638933726381 
0.29228270927621325, 0.5808148885335662, 0.4562105799359121 
0.5491217129281833, 0.30458118608283613, 0.6343726530287395 
0.8940922364426368, 0.24748736308716712, 0.3894984819935685 
0.15853272434464172, 0.5252106228949057, 0.9208312114954867 
0.2884092972333515, 0.6599778726785044, 0.4867294651719737 
0.4211397466473422, 0.5090492894477784, 0.8562890409370822 
0.9144951807558995, 0.22727213142875535, 0.30368736793660345 
0.5894210988529318, 0.29760209531487525, 0.5854409818988177 
0.48810704351569834, 0.34706733177161186, 0.8549152640152125 
0.9605871928488066, 0.46953208068329677, 0.9016259040073576 
0.3700158533330572, 0.42830498277843987, 0.17835030378059247 
0.9459880527991671, 0.7931257650013818, 0.5874160980900902 
0.8203778613959618, 0.720448745068436, 0.45742517656969583 
0.7691410385312029, 0.1456692499296528, 0.7192149415260762 
0.4718850436551546, 0.671042087048612, 0.07310804686403127 
0.688473068687482, 0.9370134657300431, 0.07322315253516565 
0.6041390836634555, 0.3966724178638007, 0.5617932724286753 
0.2808015019720438, 0.9893718269755168, 0.8705318521315003 
0.74716798586407, 0.6698837622368911, 0.3567456769214189 
0.19525835938686142, 0.7329295069251296, 0.35841129279419537 
0.8760234327441616, 0.6377508033261211, 0.783597566685445 
0.7620119136570555, 0.5953987744248909, 0.6209883705612673 
0.7634211768792767, 0.741080059801228, 0.1999058713071511 
0.6070384834205331, 0.7573759528354042, 0.36535092568985783 
0.1011893133581353, 0.9999229228857716, 0.2590263614312469 
0.7125225502738026, 0.73083336281042, 0.8763321802668124 
0.430663789414632, 0.12042136814699489, 0.9659077478551649 
0.49401237449598, 0.7744764387239842, 0.9300770177432305 
0.36441992956520186, 0.75268339317208, 0.26021147244081533 
0.3124193946449788, 0.10115715718807772, 0.07243989632165981 
0.04100191316253332, 0.405443481182323, 0.6403116831204168 
0.9861488096035935, 0.2714059615268377, 0.5440395634135776 
0.7875358900683146, 0.14830961956946254, 0.614046751579873 
0.6554839485228754, 0.9763041404125891, 0.06290966254546437 
0.011103469128527, 0.5300618410876752, 0.6130088026657503 
0.4592058855401506, 0.41770882185368885, 0.681210549279638 
0.26015795347511284, 0.05949453929077786, 0.21349315625628773 
0.5233664542046106, 0.7554442325996343, 0.5331408802986984 
0.05122133225236014, 0.7728688208344123, 0.6118242379854271 
0.3269447960099341, 0.4029516867520121, 0.04738146928663933 
0.05560979112109732, 0.9600360345618932, 0.35473949507265146 
0.40854307576643145, 0.6265306338874989, 0.3457623708201727 
0.21049554392055791, 0.28849253225170357, 0.378810055284714 
0.865333137690046, 0.22652750088905438, 0.8232743799603541 
0.05366053356689293, 0.3795349815802145, 0.01347517723916436 
0.5038887506960292, 0.44424622442686823, 0.011496975666726139 
0.16731177800784858, 0.3391084193166548, 0.6883034773983897 
0.8099360375136107, 0.6023910390931693, 0.8177476710718351 
0.6583161244930058, 0.42695445587696956, 0.5614899266179012 
0.6753564079129174, 0.620390019956363, 0.47095878196110497 
0.5813428281675267, 0.8414666263794437, 0.5307820227077651 
0.9382327846585662, 0.4259123375743118, 0.7822246933913947 
0.402969260665093, 0.6491258884105618, 0.2816428190732554 
0.5045580720866628, 0.3855367693321081, 0.8226213258052177 
0.5828359275328145, 0.9096251129580055, 0.47184556294704316 
0.6502496701207938, 0.936622108071425, 0.49095909476172883 
0.8806807626783116, 0.1878452804068358, 0.7119412296103304 
0.22888965520809346, 0.5094598510574221, 0.9396555312574758 
0.8234206968359332, 0.02965931208493311, 0.9512074922360333 
0.5982911324402365, 0.6195387536630201, 0.13520927032276564 
0.03323261539315214, 0.48060701430717145, 0.6176636535236084 
0.6195387970522955, 0.9300149357737447, 0.49462333960001037 
0.22137060454427127, 0.7272173636203286, 0.9946215105939534 
0.7111287516602157, 0.8945452350488243, 0.006216188465088868 
0.7237041715861318, 0.741779943628889, 0.498389170000868 
0.7038105985591163, 0.3873980857073933, 0.27605481290335476 
0.028331674845622712, 0.2058835622909425, 0.4567876622822211 
0.18665337256910564, 0.43475012706797445, 0.9986687315416771 
0.902720622036448, 0.19252587715591174, 0.736629675141877 
0.9452552761438792, 0.09047463389569899, 0.6022744471529637 
0.35851751528358555, 0.914320740944631, 0.8769658092946386 
0.38494500266872755, 0.8207779941094749, 0.44064949089432104 
0.7607853335078916, 0.07624670020766355, 0.5746012235069217 
0.7939734743868733, 0.25787882606317425, 0.9291588671298283 
0.2791275426443942, 0.6735012278132433, 0.9804114814810355 
0.7573456276022076, 0.2644819133665097, 0.6619930494612801 
0.3193075060917142, 0.519158957717131, 0.09430271064267703 
0.0345287126992746, 0.26676615964943184, 0.5727599240471258 
0.49491717192216766, 0.5455987943980413, 0.7773372237598983 
0.466390986317924, 0.4231930979117988, 0.8328599333643247 
0.20415171080841021, 0.197761372464775, 0.48577342060392426 
0.7530870827175191, 0.5363287819130715, 0.8464549972734791 
0.8418910017936041, 0.9383956070170036, 0.26658785482947767 
0.5716610371493971, 0.5152071790746365, 0.9359380198696114 
0.296160827462287, 0.16664165476006476, 0.2746753291844488 
0.47336188574670357, 0.29806206264496937, 0.10343903592348214 
0.6442326650468508, 0.8416880754854611, 0.25022829449911665 
0.9155392157603414, 0.08224890154966413, 0.2705540814312889 
0.23705173821927616, 0.9212890125665956, 0.16422076087667148 
0.9661167959868918, 0.49172517962617734, 0.01597620112140108 
0.7273500444725525, 0.011555084987448061, 0.77909040608094 
0.08663074160357875, 0.09855800130489256, 0.34939956863098487 
0.5896276221161774, 0.47768600039158904, 0.2149840749761952 
0.47279489556938625, 0.34862692438308696, 0.11509373808510448 
0.7506740616011964, 0.04048957847010792, 0.9135862589472531 
0.6144488196670175, 0.36498463055551367, 0.7267438553794824 
0.949334905008494, 0.2600628797297043, 0.5897935128538442 
0.4044720037351496, 0.7470366714907068, 0.35843022900833255 
0.11308905227058974, 0.9175902497650574, 0.5486762575170526 
0.5546864405319792, 0.3290330157278819, 0.1492563540644416 
0.9796118893162976, 0.030188813082914878, 0.9969198532864068 
0.024990636324350612, 0.7546080481849399, 0.39658817756495457 
0.30901703507961187, 0.653689962687442, 0.4740003068653542 
0.6099507045813229, 0.21831692659873103, 0.5504349481715556 
0.8667572615683394, 0.2140950792634262, 0.6433522589058162 
0.5943708436672194, 0.1096016785635956, 0.15167078162088588 
0.052144782950861224, 0.7237245729815167, 0.42097466346562573 
0.27957367009104905, 0.7499806748367351, 0.6398566833942304 
0.9127914000464087, 0.2139187176391929, 0.026353254775354662 
0.3350165661754083, 0.44367256119612597, 0.6316240809956752 
0.7220761652463532, 0.11298968773890539, 0.9620841582378595 
0.1593670519091609, 0.8910636420511329, 0.9261565833336021 
0.07605900637709007, 0.9918474641919155, 0.16282525150446514 
0.7288427720960762, 0.8370402792325772, 0.9583605721458598 
0.42170062760797355, 0.7554137314803964, 0.5573712623742553 
0.6748496624106628, 0.8344893048192157, 0.8207207922458659 
0.6742309882760236, 0.6293666334600017, 0.8405288318766329 
0.9205729163465333, 0.6327452422380553, 0.18273682214036702 
0.7276547401903416, 0.9851017447336345, 0.7408705451813412 
0.121045383022097, 0.13765136542760914, 0.4899596567247694 
0.6188072777762261, 0.17669925991130597, 0.07570793437244461 
0.1839378293852144, 0.01588913256155633, 0.5161049644718176 
0.9481813149176387, 0.7373115645453452, 0.9592513840151893 
0.2960116045899608, 0.04010558386562402, 0.9078262335316546 
0.21202012764104994, 0.6983734038086958, 0.5328812308732103 
0.9888853935069369, 0.6849878365059384, 0.06492120851705296 
0.3523498118771231, 0.017237902263302463, 0.7136384067155513 
0.02192714496762882, 0.2297248289309035, 0.9063051749839596 
0.3025612972920325, 0.886783584932348, 0.19343509575664986 
0.42278042005621164, 0.2368188805143242, 0.2575494245680613 
0.6812511914823336, 0.21514127409516204, 0.7482499549990395 
0.06901113056427599, 0.5558929744778157, 0.005671426014305703 
0.6082624460336985, 0.7192385743133342, 0.5321761357643031 
0.9181284250452448, 0.20367662982711743, 0.0034387990233724075 
0.3802181784701302, 0.6180800549325726, 0.1653895515992706 
0.6826600188932022, 0.8183219319196694, 0.6009658216331861 
0.44471325859231836, 0.30230854863743506, 0.08529449020566149 
0.725328951427576, 0.8493792552163991, 0.48537212866887025 
0.46307161462821667, 0.6445203024081928, 0.6976957496106021 
0.48065050086074745, 0.3343164187258003, 0.06499852016922092 
0.478279627497744, 0.7317186030369385, 0.06653753675488483 
0.6474123947603599, 0.28827825012570185, 0.6587149747380766 
0.41736675956898306, 0.743121803367119, 0.10718956613670017 
0.10481850923293856, 0.9134065223269602, 0.433255005306429 
0.24761878632667456, 0.6877958837247109, 0.5500727888966852 
0.8543601566308132, 0.008697823355287015, 0.2738001538173117 
0.21645248149305574, 0.6007301850602407, 0.6544059787230692 
0.6148424550010921, 0.693460279987315, 0.9937935422388857 
0.5160781528219727, 0.587989527723403, 0.5828445074885099 
0.1628332998416997, 0.05542718485234022, 0.6092288857667573 
0.7201137430333302, 0.5984764958664573, 0.7974666683035655 
0.7149250301029726, 0.4209898133350872, 0.8905568712683132 
0.38100263245709143, 0.7105448222598347, 0.38495931208073775 
0.16229897931827109, 0.7879035447257532, 0.8699745310174782 
0.3675274371376053, 0.3447948710114689, 0.36849210520214626 
0.07256428586845132, 0.151270439572601, 0.1811033161593112 
0.20964118810266041, 0.0800984696127588, 0.6974883595518009 
0.4207151143436779, 0.22541216894480853, 0.10416806306704463 
0.47624706042488085, 0.23863826664466592, 0.2558396819941009 
0.7045549556871082, 0.6054567613381759, 0.20162691115619213 
0.9444529223574313, 0.9150726529419145, 0.374203364498644 
0.9180076412119365, 0.8678343877764347, 0.015906242881922217 
0.6707142595471427, 0.6928724105727406, 0.41575340011697914 
0.624116693142316, 0.9689679149707573, 0.7786689372937412 
0.8725187381610031, 0.14784605731167166, 0.7848831585908557 
0.6673447414764696, 0.02734175882451728, 0.884122007766852 
0.6144577812855905, 0.18651506458251388, 0.9308019962217805 
0.6796295316007412, 0.47620095983343536, 0.4881536175161635 
0.7010208889086459, 0.3807184509313464, 0.06896218819162248 
0.9928384949028056, 0.6252687421486325, 0.5699063366115649 
0.4811399005163891, 0.9354588959860797, 0.7321067010428771 
0.7682645909204234, 0.3701943418194562, 0.20257608624935852 
0.56836373939743, 0.804780963196348, 0.2617313846074323 
0.7794364837613194, 0.5933165976269257, 0.20493856438419134 
0.6879907647920115, 0.5334642742847483, 0.02756709704926752 
0.8749432219284631, 0.09648217996027797, 0.7800942233525537 
0.2872982900699329, 0.4633381215190562, 0.602353608161574 
0.22692195822604921, 0.5358876016270903, 0.3030018597574021 
0.17916978611552692, 0.35565282365180284, 0.8087961605859662 
0.4236551277048417, 0.5005281267817411, 0.5202314711947493 
0.7770517765459184, 0.7682797685149759, 0.3298810056770356 
0.06281239367711855, 0.03128302858091003, 0.4555975374889967 
0.17826726905441526, 0.4388034488025313, 0.026283689794745047 
0.18128908161516422, 0.35064916664639845, 0.9643862217211732 
0.7089732073700077, 0.28340804079661897, 0.9181129795010102 
0.4362059350357358, 0.5834405089092334, 0.1330731675889919 
0.3119172124799324, 0.9248068672806837, 0.16422790938084986 
0.9466696682066206, 0.9454620135403471, 0.11904907117478647 
0.4976716265256266, 0.2940695386695915, 0.2738498237154673 
0.5592099938944807, 0.06102914679131333, 0.8238929341625769 
0.39712098063086043, 0.9604152467863689, 0.36631677929626527 
0.776825202338594, 0.39428212654816297, 0.6970131360962392 
0.03238617212099759, 0.3201479850009744, 0.5944086485781469 
0.5336486910609164, 0.4319958597950776, 0.30541274948611385 
0.591345570874195, 0.44438096564534413, 0.7681867898771897 
0.4418292425495768, 0.3427616078789977, 0.13446443120467522 
0.08389766939196464, 0.8618603172582711, 0.3262403233763841 
0.4996465173265655, 0.43162823857594335, 0.8162541385791459 
0.47837600012214687, 0.8948916686227105, 0.09913144998271961 
0.6568022632135854, 0.4881386306732819, 0.9153642867413663 
0.19641464185586577, 0.6939233065789332, 0.7013805001183911 
0.40554815371914843, 0.693373117203056, 0.35296317327199267 
0.9202527678328081, 0.620941274241038, 0.027538349766969672 
0.1336103009795102, 0.29222334329887445, 0.801906715806458 
0.5786304682140033, 0.04383811797846737, 0.9746428322495426 
0.544604132100815, 0.16358200652403598, 0.5982419686125574 
0.7651334186385973, 0.9162016903103165, 0.7845192553702655 
0.3039791205941099, 0.8500625119560588, 0.878556847303897 
0.28815361383324634, 0.660334773805154, 0.200588541450607 
0.3215322384032182, 0.7364458165502632, 0.8476346193630514 
0.43829372651478693, 0.6720702944966928, 0.3779499740633989 
0.2763396863490367, 0.21521676028345105, 0.03377811965851352 
0.9245742429602763, 0.24116519433851613, 0.5949991406066909 
0.34600541097591153, 0.16817852013764123, 0.09261891746073081 
0.6911145550492803, 0.41955990743948346, 0.3102148342563904 
0.5610429496668377, 0.024535501156362494, 0.5440496421107813 
0.7090603264314423, 0.10931340242395293, 0.14961491612379607 
0.7671311043095115, 0.5665318833372096, 0.3169190945249558 
0.32997299572659256, 0.4224676529542529, 0.17601387235989308 
0.7120138028066727, 0.10026439889035665, 0.20692791298661461 
0.9464371086998908, 0.8763722738983619, 0.6989373093413727 
0.23476385198551486, 0.8350507297831182, 0.7436805419850518 
0.09995755337230283, 0.8026876782723388, 0.16058411441143539 
0.8712514177258132, 0.7374592580055681, 0.17204967283238204 
0.8861116548343835, 0.5578100877679892, 0.23656604776547596 
0.8816043590711186, 0.23629082290905123, 0.0809317159923113 
0.05246866762889846, 0.7348664865976018, 0.7756962342860888 
0.1652966448968647, 0.17548038209407535, 0.05762467601962251 
0.22761659651248856, 0.7065683981264845, 0.21365214966740653 
0.0015753384654365599, 0.8911309489297419, 0.48922974001976915 
0.18093066038961614, 0.2197638467962717, 0.5262887899683586 
0.7021066349485344, 0.6103145591092559, 0.7026830855245079 
0.7038968776843856, 0.7778773980188088, 0.04496084525594546 
0.4848669315485934, 0.6970058141008882, 0.7371179035221638 
0.40206937735483594, 0.30496378083568587, 0.2149640795312726 
0.6441344110069335, 0.54721256598042, 0.339902997497992 
0.26252181771198, 0.31980145244464886, 0.46624139167113454 
0.040052410785389236, 0.2567924820312679, 0.17572964865121865 
0.642869724236293, 0.88672864636933, 0.6117711189678935 
0.0944073829869354, 0.5633820242980216, 0.19926749695175971 
0.644683269643927, 0.08375492762917403, 0.8338689877531339 
0.9187031216147095, 0.4858832710415719, 0.9441107985505536 
0.7715885098890677, 0.6812255865946938, 0.6297810815150875 
0.8224719232660022, 0.0003135679880095221, 0.19805940752345774 
0.45831480852638595, 0.8473391131848454, 0.954028065542293 
0.5086974290048615, 0.06370790741010557, 0.9176624079609697 
0.041971956481260175, 0.48600919958099575, 0.8123446637511561 
0.8719996012594107, 0.8202238568026224, 0.7769210924367516 
0.8030716078517672, 0.45173352866465977, 0.23104993258679296 
0.06570761604687958, 0.02333293498557132, 0.2699668428222185 
0.695807606180487, 0.9177091287024369, 0.14070431813907314 
0.5405703273795419, 0.8620378409707214, 0.6153217682477324 
0.04372817152802344, 0.4936091822082579, 0.9349333596614569 
0.3193978046141587, 0.6844426974757857, 0.487327317803641 
0.04544313371573594, 0.3169572738340848, 0.2499962918203742 
0.6252416378969844, 0.7668349297858323, 0.8983858294227628 
0.35109273218043113, 0.703373761600006, 0.677633001224647 
